12.066350 16.418440 23.206884
12.066304 16.447693 23.210024
12.066257 16.476946 23.213156
12.066154 16.506142 23.219868
12.066109 16.535395 23.223007
12.066062 16.564648 23.226141
12.066016 16.593903 23.229282
12.065955 16.623140 23.233324
12.065952 16.652437 23.233757
12.065948 16.681734 23.234188
12.065989 16.711073 23.231911
12.066029 16.740416 23.229633
12.066069 16.769754 23.227369
12.066109 16.799095 23.225092
12.093814 13.839497 23.219927
12.093797 13.868780 23.221256
12.093795 13.898076 23.221689
12.093777 13.927359 23.223032
12.093774 13.956655 23.223465
12.093770 13.985952 23.223898
12.093767 14.015249 23.224329
12.093764 14.044545 23.224762
12.093760 14.073842 23.225195
12.093758 14.103140 23.225636
12.093755 14.132436 23.226068
12.093751 14.161733 23.226501
12.093748 14.191031 23.226933
12.093745 14.220326 23.227365
12.093771 14.249653 23.225958
12.093782 14.278964 23.225492
12.093779 14.308262 23.225924
12.093804 14.337587 23.224556
12.093816 14.366899 23.224089
12.093843 14.396225 23.222712
12.093853 14.425536 23.222256
12.093864 14.454847 23.221779
12.093862 14.484143 23.222210
12.093872 14.513455 23.221743
12.093869 14.542752 23.222176
12.093865 14.572048 23.222616
12.093863 14.601345 23.223049
12.093860 14.630643 23.223442
12.093857 14.659940 23.223873
12.093854 14.689237 23.224306
12.093850 14.718534 23.224739
12.093847 14.747830 23.225170
12.093844 14.777127 23.225603
12.093826 14.806409 23.226946
12.093781 14.835664 23.230038
12.093763 14.864945 23.231380
12.093747 14.894228 23.232712
12.093729 14.923510 23.234045
12.093712 14.952793 23.235376
12.093708 14.982089 23.235819
12.093691 15.011372 23.237150
12.093688 15.040668 23.237583
12.093684 15.069965 23.238016
12.093681 15.099262 23.238447
12.093678 15.128558 23.238880
12.093675 15.157856 23.239313
12.093657 15.187138 23.240654
12.093626 15.216405 23.242887
12.093579 15.245659 23.246019
12.093534 15.274912 23.249159
12.093487 15.304165 23.252302
12.093455 15.333432 23.254534
12.093409 15.362686 23.257666
12.093422 15.391998 23.257158
12.093461 15.421338 23.254890
12.093487 15.450664 23.253525
12.093527 15.480005 23.251247
12.093567 15.509345 23.248980
12.093607 15.538686 23.246702
12.093632 15.568012 23.245337
12.093629 15.597309 23.245770
12.093626 15.626605 23.246201
12.093637 15.655917 23.245733
12.093634 15.685215 23.246166
12.093645 15.714525 23.245699
12.093656 15.743837 23.245230
12.093681 15.773164 23.243853
12.093693 15.802474 23.243387
12.093719 15.831800 23.242020
12.093743 15.861127 23.240643
12.093770 15.890451 23.239275
12.093796 15.919779 23.237898
12.093836 15.949120 23.235592
12.093862 15.978445 23.234215
12.093873 16.007757 23.233755
12.093870 16.037054 23.234179
12.093866 16.066351 23.234612
12.093863 16.095648 23.235043
12.093861 16.124943 23.235476
12.093900 16.154284 23.233210
12.093940 16.183626 23.230932
12.094008 16.212994 23.226854
12.094077 16.242365 23.222780
12.094146 16.271734 23.218693
12.094214 16.301104 23.214617
12.094283 16.330473 23.210541
12.094352 16.359842 23.206465
12.094378 16.389168 23.205088
12.094389 16.418480 23.204620
12.094386 16.447775 23.205051
12.094383 16.477074 23.205484
12.094280 16.506269 23.212194
12.094234 16.535521 23.215326
12.094173 16.564760 23.219368
12.094127 16.594015 23.222509
12.094067 16.623253 23.226551
12.094020 16.652506 23.229692
12.093960 16.681746 23.233725
12.093956 16.711040 23.234158
12.093953 16.740339 23.234589
12.093965 16.769648 23.234121
12.093961 16.798946 23.234554
12.121796 13.839478 23.221270
12.121778 13.868761 23.222614
12.121761 13.898044 23.223944
12.121744 13.927325 23.225277
12.121741 13.956622 23.225708
12.121723 13.985905 23.227041
12.121720 14.015202 23.227484
12.121716 14.044498 23.227917
12.121714 14.073794 23.228350
12.121711 14.103092 23.228783
12.121707 14.132389 23.229214
12.121704 14.161685 23.229647
12.121701 14.190983 23.230089
12.121697 14.220279 23.230520
12.121709 14.249590 23.230053
12.121720 14.278902 23.229546
12.121717 14.308200 23.229979
12.121743 14.337525 23.228601
12.121754 14.366837 23.228144
12.121780 14.396163 23.226767
12.121792 14.425474 23.226299
12.121818 14.454800 23.224932
12.121828 14.484111 23.224466
12.121854 14.513437 23.223089
12.121865 14.542748 23.222620
12.121861 14.572044 23.223063
12.121859 14.601341 23.223495
12.121856 14.630639 23.223886
12.121853 14.659936 23.224319
12.121850 14.689233 23.224752
12.121803 14.718487 23.227894
12.121743 14.747725 23.231936
12.121696 14.776978 23.235079
12.121636 14.806216 23.239109
12.121519 14.835398 23.246717
12.121472 14.864651 23.249851
12.121413 14.893889 23.253893
12.121409 14.923186 23.254326
12.121392 14.952469 23.255657
12.121432 14.981809 23.253389
12.121471 15.011149 23.251123
12.121511 15.040490 23.248846
12.121537 15.069816 23.247478
12.121534 15.099113 23.247911
12.121531 15.128409 23.248343
12.121528 15.157706 23.248775
12.121525 15.187003 23.249208
12.121492 15.216270 23.251440
12.121447 15.245524 23.254581
12.121400 15.274777 23.257713
12.121354 15.304030 23.260855
12.121350 15.333327 23.261288
12.121347 15.362624 23.261719
12.121331 15.391908 23.263012
12.121328 15.421204 23.263445
12.121325 15.450500 23.263876
12.121350 15.479827 23.262510
12.121376 15.509152 23.261143
12.121416 15.538493 23.258865
12.121456 15.567834 23.256599
12.121495 15.597174 23.254332
12.121535 15.626514 23.252054
12.121590 15.655869 23.248878
12.121630 15.685211 23.246611
12.121655 15.714536 23.245243
12.121667 15.743848 23.244766
12.121692 15.773174 23.243401
12.121703 15.802485 23.242933
12.121715 15.831797 23.242466
12.121725 15.861109 23.241997
12.121737 15.890419 23.241520
12.121735 15.919716 23.241953
12.121746 15.949029 23.241446
12.121758 15.978339 23.240976
12.121768 16.007650 23.240511
12.121779 16.036963 23.240034
12.121777 16.066259 23.240467
12.121788 16.095572 23.239998
12.121784 16.124866 23.240440
12.121796 16.154179 23.239964
12.121793 16.183475 23.240396
12.121803 16.212786 23.239927
12.121815 16.242098 23.239460
12.121869 16.271454 23.236284
12.121923 16.300808 23.233107
12.121992 16.330177 23.229031
12.122046 16.359533 23.225855
12.122102 16.388887 23.222677
12.122142 16.418228 23.220400
12.122152 16.447538 23.219934
12.122149 16.476837 23.220367
12.122061 16.506048 23.226166
12.122028 16.535315 23.228409
12.121983 16.564568 23.231550
12.121936 16.593822 23.234680
12.121890 16.623074 23.237823
12.121887 16.652370 23.238255
12.121883 16.681669 23.238688
12.121938 16.711023 23.235500
12.121992 16.740377 23.232334
12.122061 16.769747 23.228260
12.122115 16.799103 23.225082
12.149793 13.839475 23.221716
12.149776 13.868757 23.223059
12.149773 13.898054 23.223492
12.149770 13.927351 23.223925
12.149767 13.956647 23.224356
12.149749 13.985930 23.225689
12.149746 14.015227 23.226122
12.149728 14.044509 23.227463
12.149725 14.073805 23.227896
12.149722 14.103103 23.228327
12.149718 14.132400 23.228760
12.149701 14.161681 23.230093
12.149713 14.190993 23.229624
12.149709 14.220290 23.230057
12.149721 14.249601 23.229559
12.149732 14.278913 23.229092
12.149729 14.308210 23.229523
12.149740 14.337522 23.229046
12.149751 14.366833 23.228590
12.149763 14.396145 23.228123
12.149760 14.425441 23.228544
12.149772 14.454752 23.228077
12.149782 14.484063 23.227610
12.149794 14.513375 23.227142
12.149805 14.542686 23.226673
12.149816 14.571998 23.226208
12.149827 14.601309 23.225740
12.149810 14.630592 23.227034
12.149807 14.659888 23.227474
12.149789 14.689171 23.228807
12.149772 14.718453 23.230139
12.149740 14.747721 23.232382
12.149693 14.776974 23.235523
12.149633 14.806212 23.239553
12.149545 14.835423 23.245356
12.149498 14.864676 23.248497
12.149453 14.893929 23.251629
12.149406 14.923183 23.254770
12.149346 14.952423 23.258801
12.149343 14.981719 23.259245
12.149340 15.011016 23.259678
12.149337 15.040313 23.260109
12.149333 15.069610 23.260542
12.149359 15.098935 23.259174
12.149370 15.128246 23.258707
12.149382 15.157558 23.258228
12.149392 15.186870 23.257761
12.149432 15.216209 23.255495
12.149458 15.245536 23.254128
12.149454 15.274833 23.254560
12.149437 15.304115 23.255892
12.149434 15.333411 23.256325
12.149416 15.362695 23.257658
12.149386 15.391963 23.259850
12.149325 15.421201 23.263889
12.149264 15.450439 23.267931
12.149247 15.479722 23.269264
12.149230 15.509005 23.270597
12.149226 15.538301 23.271029
12.149209 15.567584 23.272362
12.149263 15.596939 23.269194
12.149303 15.626279 23.266916
12.149371 15.655648 23.262850
12.149440 15.685019 23.258774
12.149508 15.714387 23.254698
12.149577 15.743756 23.250622
12.149703 15.773185 23.242947
12.149815 15.802597 23.236158
12.149869 15.831953 23.232994
12.149923 15.861308 23.229816
12.149979 15.890662 23.226641
12.150019 15.920003 23.224363
12.150030 15.949316 23.223856
12.149984 15.978568 23.226988
12.149938 16.007822 23.230129
12.149906 16.037090 23.232372
12.149859 16.066343 23.235502
12.149814 16.095596 23.238644
12.149767 16.124847 23.241787
12.149778 16.154160 23.241308
12.149776 16.183458 23.241751
12.149786 16.212769 23.241274
12.149783 16.242065 23.241707
12.149852 16.271435 23.237629
12.149920 16.300804 23.233553
12.150003 16.330189 23.228577
12.150072 16.359560 23.224491
12.150142 16.388927 23.220425
12.150210 16.418297 23.216337
12.150265 16.447651 23.213160
12.150305 16.476994 23.210882
12.150201 16.506189 23.217594
12.150155 16.535440 23.220728
12.150094 16.564680 23.224779
12.150048 16.593935 23.227909
12.149987 16.623171 23.231951
12.149956 16.652439 23.234194
12.149923 16.681709 23.236425
12.149920 16.711004 23.236858
12.149918 16.740301 23.237289
12.149958 16.769640 23.235012
12.149982 16.798967 23.233644
12.177832 13.839516 23.219454
12.177814 13.868798 23.220795
12.177798 13.898081 23.222128
12.177780 13.927362 23.223469
12.177777 13.956659 23.223902
12.177759 13.985942 23.225235
12.177756 14.015239 23.225666
12.177753 14.044535 23.226099
12.177750 14.073832 23.226532
12.177747 14.103129 23.226973
12.177744 14.132425 23.227406
12.177740 14.161722 23.227839
12.177737 14.191020 23.228270
12.177734 14.220316 23.228703
12.177732 14.249614 23.229105
12.177742 14.278924 23.228638
12.177739 14.308222 23.229071
12.177751 14.337533 23.228594
12.177747 14.366830 23.229034
12.177759 14.396142 23.228567
12.177756 14.425438 23.228991
12.177752 14.454735 23.229433
12.177750 14.484032 23.229864
12.177718 14.513300 23.232098
12.177671 14.542553 23.235239
12.177640 14.571820 23.237469
12.177593 14.601073 23.240612
12.177505 14.630284 23.246414
12.177459 14.659537 23.249556
12.177398 14.688775 23.253586
12.177381 14.718059 23.254929
12.177363 14.747340 23.256260
12.177345 14.776623 23.257593
12.177328 14.805904 23.258924
12.177311 14.835188 23.260227
12.177294 14.864470 23.261559
12.177277 14.893752 23.262892
12.177274 14.923049 23.263325
12.177257 14.952332 23.264656
12.177267 14.981643 23.264189
12.177264 15.010940 23.264622
12.177290 15.040266 23.263254
12.177300 15.069577 23.262785
12.177326 15.098903 23.261419
12.177338 15.128214 23.260952
12.177363 15.157540 23.259575
12.177374 15.186852 23.259117
12.177385 15.216163 23.258650
12.177397 15.245475 23.258171
12.177393 15.274771 23.258604
12.177390 15.304068 23.259037
12.177387 15.333364 23.259468
12.177369 15.362647 23.260813
12.177324 15.391901 23.263903
12.177307 15.421183 23.265236
12.177276 15.450450 23.267477
12.177243 15.479718 23.269711
12.177212 15.508986 23.271942
12.177208 15.538282 23.272375
12.177191 15.567566 23.273706
12.177202 15.596877 23.273239
12.177213 15.626188 23.272772
12.177281 15.655557 23.268705
12.177336 15.684913 23.265528
12.177404 15.714281 23.261450
12.177473 15.743651 23.257385
12.177556 15.773036 23.252409
12.177625 15.802404 23.248331
12.177736 15.831818 23.241547
12.177834 15.861217 23.235672
12.177903 15.890586 23.231594
12.177958 15.919941 23.228418
12.178055 15.949341 23.222502
12.178109 15.978695 23.219315
12.178149 16.008036 23.217049
12.178146 16.037334 23.217480
12.178143 16.066629 23.217913
12.178140 16.095926 23.218346
12.178137 16.125223 23.218777
12.178104 16.154491 23.221010
12.178073 16.183760 23.223251
12.178069 16.213055 23.223684
12.178066 16.242353 23.224117
12.178092 16.271679 23.222738
12.178103 16.300989 23.222271
12.178128 16.330317 23.220903
12.178140 16.359629 23.220427
12.178195 16.388983 23.217251
12.178235 16.418324 23.214983
12.178261 16.447647 23.213606
12.178271 16.476959 23.213139
12.178197 16.506186 23.218040
12.178151 16.535437 23.221172
12.178104 16.564692 23.224323
12.178059 16.593945 23.227455
12.178012 16.623198 23.230597
12.178023 16.652510 23.230129
12.178020 16.681807 23.230553
12.178061 16.711145 23.228287
12.178101 16.740486 23.226009
12.178140 16.769827 23.223732
12.178180 16.799168 23.221455
12.205856 13.839540 23.218100
12.205853 13.868838 23.218531
12.205837 13.898120 23.219873
12.205819 13.927402 23.221205
12.205802 13.956684 23.222538
12.205784 13.985967 23.223879
12.205767 14.015249 23.225212
12.205750 14.044531 23.226545
12.205731 14.073813 23.227877
12.205714 14.103096 23.229219
12.205710 14.132393 23.229650
12.205708 14.161690 23.230083
12.205719 14.191001 23.229616
12.205730 14.220312 23.229149
12.205770 14.249653 23.226843
12.205782 14.278964 23.226374
12.205792 14.308276 23.225906
12.205804 14.337587 23.225439
12.205801 14.366884 23.225872
12.205784 14.396167 23.227203
12.205767 14.425449 23.228537
12.205691 14.454673 23.233477
12.205617 14.483896 23.238428
12.205542 14.513122 23.243361
12.205467 14.542345 23.248301
12.205392 14.571569 23.253242
12.205302 14.600779 23.259083
12.205243 14.630018 23.263084
12.205268 14.659344 23.261717
12.205279 14.688655 23.261240
12.205305 14.717982 23.259872
12.205316 14.747293 23.259405
12.205341 14.776619 23.258038
12.205353 14.805929 23.257570
12.205350 14.835228 23.257963
12.205347 14.864524 23.258396
12.205330 14.893806 23.259727
12.205327 14.923102 23.260170
12.205310 14.952386 23.261501
12.205306 14.981683 23.261934
12.205289 15.010964 23.263266
12.205286 15.040262 23.263699
12.205282 15.069558 23.264132
12.205279 15.098855 23.264572
12.205276 15.128152 23.265007
12.205258 15.157434 23.266329
12.205241 15.186717 23.267670
12.205237 15.216013 23.268103
12.205220 15.245296 23.269434
12.205217 15.274592 23.269867
12.205199 15.303875 23.271200
12.205239 15.333215 23.268934
12.205309 15.362586 23.264816
12.205349 15.391926 23.262550
12.205403 15.421281 23.259373
12.205443 15.450621 23.257105
12.205498 15.479977 23.253929
12.205538 15.509316 23.251661
12.205548 15.538628 23.251194
12.205545 15.567925 23.251627
12.205543 15.597221 23.252058
12.205539 15.626518 23.252491
12.205564 15.655844 23.251114
12.205576 15.685156 23.250648
12.205602 15.714480 23.249281
12.205612 15.743793 23.248814
12.205638 15.773119 23.247444
12.205664 15.802444 23.246067
12.205704 15.831785 23.243801
12.205729 15.861112 23.242424
12.205784 15.890466 23.239258
12.205824 15.919806 23.236982
12.205922 15.949206 23.231066
12.205976 15.978560 23.227879
12.206016 16.007902 23.225611
12.206027 16.037214 23.225143
12.206038 16.066525 23.224667
12.206006 16.095793 23.226908
12.205975 16.125059 23.229141
12.205957 16.154343 23.230473
12.205925 16.183611 23.232716
12.205894 16.212877 23.234957
12.205861 16.242146 23.237188
12.205873 16.271458 23.236721
12.205870 16.300753 23.237154
12.205881 16.330065 23.236677
12.205877 16.359362 23.237108
12.205890 16.388672 23.236641
12.205887 16.417971 23.237074
12.205897 16.447281 23.236607
12.205894 16.476578 23.237038
12.206021 16.506006 23.229313
12.206076 16.535360 23.226135
12.206130 16.564716 23.222960
12.206183 16.594072 23.219782
12.206238 16.623426 23.216606
12.206292 16.652782 23.213430
12.206347 16.682137 23.210253
12.206344 16.711433 23.210686
12.206340 16.740730 23.211117
12.206337 16.770025 23.211540
12.206334 16.799324 23.211983
12.233825 13.839508 23.220345
12.233808 13.868791 23.221685
12.233806 13.898088 23.222118
12.233788 13.927369 23.223452
12.233785 13.956666 23.223892
12.233767 13.985949 23.225225
12.233764 14.015245 23.225658
12.233747 14.044527 23.226990
12.233743 14.073824 23.227423
12.233740 14.103122 23.227863
12.233751 14.132432 23.227396
12.233747 14.161729 23.227829
12.233759 14.191041 23.227362
12.233770 14.220352 23.226894
12.233796 14.249679 23.225477
12.233808 14.278990 23.225010
12.233818 14.308302 23.224543
12.233829 14.337613 23.224075
12.233827 14.366909 23.224506
12.233825 14.396207 23.224939
12.233821 14.425503 23.225382
12.233761 14.454741 23.229414
12.233700 14.483980 23.233456
12.233639 14.513220 23.237495
12.233579 14.542458 23.241537
12.233518 14.571696 23.245581
12.233458 14.600935 23.249620
12.233355 14.630131 23.256323
12.233365 14.659442 23.255854
12.233362 14.688739 23.256287
12.233374 14.718051 23.255819
12.233385 14.747362 23.255352
12.233396 14.776673 23.254873
12.233393 14.805969 23.255318
12.233333 14.835210 23.259308
12.233301 14.864477 23.261551
12.233270 14.893744 23.263783
12.233224 14.922997 23.266924
12.233177 14.952251 23.270056
12.233131 14.981504 23.273188
12.233085 15.010757 23.276329
12.233082 15.040054 23.276762
12.233065 15.069337 23.278095
12.233061 15.098633 23.278526
12.233044 15.127915 23.279858
12.233041 15.157213 23.280291
12.233023 15.186495 23.281622
12.233020 15.215792 23.282055
12.233017 15.245089 23.282486
12.233027 15.274400 23.282030
12.233039 15.303711 23.281553
12.233065 15.333036 23.280186
12.233133 15.362408 23.276079
12.233189 15.391762 23.272902
12.233257 15.421131 23.268837
12.233326 15.450500 23.264759
12.233379 15.479856 23.261593
12.233434 15.509211 23.258415
12.233488 15.538566 23.255239
12.233528 15.567906 23.252972
12.233540 15.597218 23.252504
12.233550 15.626529 23.252039
12.233562 15.655840 23.251560
12.233559 15.685138 23.251991
12.233570 15.714448 23.251526
12.233566 15.743745 23.251959
12.233578 15.773057 23.251492
12.233575 15.802353 23.251923
12.233600 15.831679 23.250555
12.233611 15.860991 23.250088
12.233638 15.890316 23.248711
12.233649 15.919628 23.248245
12.233675 15.948956 23.246838
12.233701 15.978280 23.245468
12.233711 16.007593 23.244991
12.233708 16.036890 23.245434
12.233706 16.066185 23.245857
12.233716 16.095497 23.245388
12.233713 16.124794 23.245821
12.233725 16.154104 23.245356
12.233735 16.183416 23.244888
12.233747 16.212727 23.244419
12.233744 16.242025 23.244843
12.233769 16.271351 23.243475
12.233794 16.300676 23.242107
12.233820 16.330004 23.240730
12.233831 16.359314 23.240265
12.233858 16.388639 23.238897
12.233870 16.417952 23.238419
12.233894 16.447277 23.237051
12.233920 16.476603 23.235674
12.234033 16.506018 23.228859
12.234087 16.535372 23.225681
12.234141 16.564728 23.222506
12.234152 16.594040 23.222029
12.234149 16.623335 23.222462
12.234146 16.652632 23.222902
12.234142 16.681931 23.223326
12.234097 16.711182 23.226467
12.234035 16.740421 23.230507
12.233990 16.769672 23.233650
12.233929 16.798912 23.237682
12.261850 13.839533 23.218990
12.261833 13.868816 23.220322
12.261817 13.898098 23.221664
12.261799 13.927381 23.222996
12.261796 13.956676 23.223429
12.261778 13.985959 23.224771
12.261761 14.015242 23.226103
12.261744 14.044523 23.227436
12.261754 14.073834 23.226967
12.261751 14.103132 23.227400
12.261763 14.132443 23.226942
12.261759 14.161740 23.227365
12.261770 14.191051 23.226896
12.261782 14.220363 23.226429
12.261807 14.249689 23.225023
12.261819 14.279000 23.224556
12.261815 14.308298 23.224989
12.261827 14.337609 23.224520
12.261824 14.366905 23.224953
12.261778 14.396159 23.228094
12.261732 14.425412 23.231237
12.261685 14.454665 23.234367
12.261625 14.483904 23.238409
12.261579 14.513158 23.241550
12.261518 14.542396 23.245583
12.261457 14.571634 23.249624
12.261383 14.600858 23.254566
12.261337 14.630113 23.257668
12.261333 14.659410 23.258101
12.261316 14.688691 23.259432
12.261299 14.717975 23.260763
12.261281 14.747256 23.262106
12.261264 14.776538 23.263437
12.261232 14.805806 23.265669
12.261187 14.835060 23.268772
12.261154 14.864327 23.271004
12.261109 14.893580 23.274134
12.261091 14.922863 23.275478
12.261060 14.952131 23.277708
12.261057 14.981428 23.278141
12.261039 15.010710 23.279474
12.261036 15.040008 23.279905
12.261033 15.069304 23.280338
12.261044 15.098615 23.279871
12.261041 15.127912 23.280302
12.261052 15.157224 23.279837
12.261048 15.186521 23.280270
12.261045 15.215816 23.280703
12.261028 15.245101 23.282034
12.261024 15.274397 23.282476
12.261007 15.303679 23.283798
12.261004 15.332975 23.284231
12.260987 15.362259 23.285534
12.260984 15.391556 23.285965
12.261053 15.420925 23.281887
12.261122 15.450294 23.277822
12.261205 15.479679 23.272846
12.261273 15.509048 23.268778
12.261356 15.538432 23.263803
12.261425 15.567802 23.259726
12.261508 15.597186 23.254749
12.261577 15.626555 23.250675
12.261573 15.655850 23.251106
12.261570 15.685148 23.251539
12.261567 15.714444 23.251972
12.261563 15.743741 23.252403
12.261575 15.773053 23.251936
12.261572 15.802349 23.252369
12.261597 15.831676 23.251001
12.261608 15.860988 23.250534
12.261635 15.890312 23.249155
12.261646 15.919624 23.248690
12.261672 15.948952 23.247282
12.261712 15.978292 23.245005
12.261738 16.007618 23.243637
12.261791 16.036974 23.240461
12.261846 16.066328 23.237284
12.261900 16.095682 23.234108
12.261954 16.125036 23.230942
12.262023 16.154408 23.226866
12.262077 16.183764 23.223679
12.262089 16.213072 23.223211
12.262085 16.242371 23.223644
12.262053 16.271639 23.225885
12.262021 16.300905 23.228117
12.261990 16.330173 23.230360
12.261957 16.359442 23.232590
12.261927 16.388708 23.234833
12.261895 16.417976 23.237064
12.261906 16.447287 23.236597
12.261903 16.476585 23.237030
12.262015 16.505999 23.230204
12.262070 16.535353 23.227026
12.262124 16.564709 23.223852
12.262192 16.594078 23.219774
12.262246 16.623432 23.216599
12.262300 16.652788 23.213421
12.262341 16.682129 23.211143
12.262295 16.711382 23.214275
12.262234 16.740622 23.218328
12.262173 16.769857 23.222368
12.262113 16.799097 23.226400
12.289804 13.839485 23.222145
12.289786 13.868769 23.223478
12.289770 13.898050 23.224808
12.289752 13.927333 23.226152
12.289749 13.956629 23.226583
12.289731 13.985912 23.227917
12.289728 14.015209 23.228350
12.289710 14.044491 23.229691
12.289707 14.073787 23.230124
12.289704 14.103086 23.230555
12.289716 14.132397 23.230087
12.289712 14.161694 23.230520
12.289709 14.190990 23.230953
12.289706 14.220287 23.231384
12.289732 14.249614 23.229977
12.289743 14.278925 23.229509
12.289754 14.308237 23.229044
12.289765 14.337548 23.228575
12.289777 14.366858 23.228107
12.289745 14.396128 23.230350
12.289700 14.425381 23.233482
12.289653 14.454633 23.236622
12.289607 14.483886 23.239765
12.289560 14.513140 23.242897
12.289500 14.542378 23.246939
12.289454 14.571631 23.250069
12.289393 14.600870 23.254112
12.289348 14.630124 23.257214
12.289315 14.659391 23.259445
12.289284 14.688660 23.261677
12.289267 14.717942 23.263018
12.289234 14.747210 23.265251
12.289203 14.776477 23.267483
12.289156 14.805730 23.270624
12.289125 14.834999 23.272818
12.289122 14.864296 23.273251
12.289105 14.893578 23.274580
12.289103 14.922874 23.275013
12.289084 14.952157 23.276356
12.289139 14.981512 23.273178
12.289193 15.010867 23.270014
12.289248 15.040222 23.266836
12.289301 15.069577 23.263668
12.289355 15.098932 23.260492
12.289395 15.128272 23.258224
12.289407 15.157584 23.257757
12.289417 15.186895 23.257292
12.289357 15.216133 23.261322
12.289296 15.245373 23.265364
12.289236 15.274611 23.269405
12.289161 15.303835 23.274336
12.289101 15.333074 23.278378
12.289026 15.362299 23.283278
12.288996 15.391566 23.285511
12.289049 15.420921 23.282333
12.289104 15.450276 23.279167
12.289172 15.479646 23.275101
12.289241 15.509015 23.271025
12.289324 15.538399 23.266048
12.289392 15.567769 23.261980
12.289474 15.597153 23.257006
12.289543 15.626522 23.252930
12.289555 15.655832 23.252451
12.289566 15.685144 23.251986
12.289563 15.714440 23.252417
12.289559 15.743737 23.252850
12.289557 15.773035 23.253292
12.289554 15.802331 23.253714
12.289550 15.831628 23.254156
12.289547 15.860926 23.254589
12.289544 15.890222 23.255020
12.289541 15.919518 23.255453
12.289554 15.948832 23.254936
12.289578 15.978156 23.253569
12.289590 16.007469 23.253101
12.289659 16.036839 23.249025
12.289727 16.066206 23.244949
12.289824 16.095606 23.239073
12.289907 16.124989 23.234087
12.289990 16.154373 23.229109
12.290059 16.183744 23.225035
12.290128 16.213112 23.220957
12.290196 16.242483 23.216871
12.290178 16.271767 23.218203
12.290147 16.301033 23.220444
12.290114 16.330301 23.222687
12.290069 16.359554 23.225819
12.290037 16.388821 23.228060
12.289991 16.418076 23.231194
12.289959 16.447342 23.233435
12.289913 16.476595 23.236565
12.290026 16.506010 23.229750
12.290080 16.535366 23.226572
12.290134 16.564722 23.223396
12.290145 16.594034 23.222919
12.290142 16.623329 23.223352
12.290196 16.652685 23.220175
12.290236 16.682026 23.217897
12.290190 16.711277 23.221039
12.290130 16.740517 23.225080
12.290069 16.769754 23.229124
12.290009 16.798994 23.233164
12.317785 13.839468 23.223490
12.317768 13.868752 23.224821
12.317766 13.898047 23.225254
12.317748 13.927330 23.226597
12.317745 13.956626 23.227030
12.317727 13.985909 23.228361
12.317724 14.015206 23.228794
12.317706 14.044488 23.230137
12.317718 14.073799 23.229658
12.317715 14.103096 23.230101
12.317712 14.132393 23.230534
12.317708 14.161690 23.230965
12.317719 14.191002 23.230497
12.317717 14.220298 23.230930
12.317742 14.249624 23.229523
12.317754 14.278935 23.229057
12.317750 14.308233 23.229488
12.317747 14.337529 23.229921
12.317744 14.366826 23.230354
12.317741 14.396124 23.230795
12.317739 14.425420 23.231218
12.317735 14.454717 23.231661
12.317718 14.483998 23.232992
12.317657 14.513238 23.237034
12.317596 14.542477 23.241076
12.317551 14.571730 23.244207
12.317490 14.600967 23.248249
12.317329 14.630106 23.258558
12.317254 14.659329 23.263498
12.317180 14.688554 23.268431
12.317162 14.717836 23.269762
12.317130 14.747105 23.272003
12.317127 14.776401 23.272436
12.317109 14.805683 23.273769
12.317150 14.835025 23.271463
12.317175 14.864350 23.270096
12.317202 14.893676 23.268726
12.317256 14.923031 23.265553
12.317296 14.952372 23.263285
12.317336 14.981711 23.261007
12.317375 15.011052 23.258741
12.317415 15.040393 23.256474
12.317441 15.069718 23.255108
12.317467 15.099044 23.253731
12.317492 15.128370 23.252363
12.317503 15.157681 23.251894
12.317500 15.186978 23.252327
12.317496 15.216275 23.252760
12.317493 15.245572 23.253191
12.317491 15.274869 23.253624
12.317472 15.304152 23.254957
12.317470 15.333447 23.255388
12.317451 15.362731 23.256731
12.317436 15.392014 23.258022
12.317432 15.421309 23.258455
12.317415 15.450592 23.259787
12.317455 15.479933 23.257523
12.317495 15.509274 23.255245
12.317534 15.538613 23.252977
12.317560 15.567940 23.251598
12.317600 15.597281 23.249334
12.317640 15.626620 23.247057
12.317666 15.655947 23.245687
12.317691 15.685273 23.244322
12.317688 15.714569 23.244755
12.317671 15.743852 23.246088
12.317653 15.773135 23.247417
12.317621 15.802402 23.249660
12.317603 15.831684 23.250992
12.317572 15.860953 23.253225
12.317554 15.890234 23.254566
12.317537 15.919517 23.255899
12.317506 15.948786 23.258091
12.317517 15.978096 23.257624
12.317514 16.007393 23.258055
12.317539 16.036720 23.256687
12.317551 16.066031 23.256210
12.317634 16.095415 23.251236
12.317702 16.124784 23.247158
12.317771 16.154154 23.243082
12.317840 16.183523 23.239004
12.317908 16.212893 23.234930
12.317963 16.242249 23.231752
12.317987 16.271574 23.230387
12.318013 16.300900 23.229010
12.317982 16.330168 23.231251
12.317949 16.359436 23.233480
12.317919 16.388702 23.235723
12.317887 16.417971 23.237955
12.317869 16.447252 23.239288
12.317838 16.476521 23.241529
12.317849 16.505833 23.241013
12.317861 16.535143 23.240545
12.317872 16.564455 23.240078
12.317897 16.593782 23.238701
12.317908 16.623093 23.238232
12.317920 16.652405 23.237766
12.317916 16.681702 23.238199
12.317913 16.710999 23.238619
12.317910 16.740295 23.239063
12.317906 16.769590 23.239496
12.317904 16.798889 23.239918
12.345767 13.839450 23.224834
12.345750 13.868732 23.226179
12.345747 13.898029 23.226610
12.345744 13.927326 23.227043
12.345741 13.956622 23.227476
12.345737 13.985920 23.227907
12.345735 14.015217 23.228340
12.345732 14.044513 23.228773
12.345728 14.073810 23.229204
12.345725 14.103107 23.229647
12.345737 14.132418 23.229179
12.345747 14.161730 23.228701
12.345758 14.191041 23.228233
12.345756 14.220338 23.228678
12.345781 14.249664 23.227261
12.345793 14.278975 23.226793
12.345789 14.308272 23.227224
12.345786 14.337569 23.227667
12.345769 14.366851 23.228998
12.345766 14.396149 23.229431
12.345749 14.425431 23.230764
12.345702 14.454683 23.233906
12.345656 14.483936 23.237047
12.345610 14.513190 23.240189
12.345564 14.542443 23.243320
12.345517 14.571696 23.246462
12.345471 14.600949 23.249594
12.345354 14.630132 23.257195
12.345336 14.659413 23.258537
12.345304 14.688681 23.260769
12.345287 14.717964 23.262100
12.345255 14.747231 23.264341
12.345281 14.776557 23.262966
12.345292 14.805868 23.262508
12.345361 14.835238 23.258390
12.345415 14.864594 23.255224
12.345470 14.893948 23.252047
12.345525 14.923303 23.248882
12.345578 14.952659 23.245705
12.345604 14.981984 23.244328
12.345630 15.011310 23.242962
12.345684 15.040666 23.239794
12.345724 15.070005 23.237516
12.345763 15.099345 23.235250
12.345789 15.128672 23.233873
12.345800 15.157984 23.233404
12.345812 15.187294 23.232937
12.345822 15.216605 23.232471
12.345819 15.245903 23.232904
12.345788 15.275170 23.235134
12.345741 15.304423 23.238276
12.345680 15.333662 23.242319
12.345620 15.362901 23.246361
12.345532 15.392111 23.252161
12.345501 15.421379 23.254393
12.345454 15.450631 23.257534
12.345480 15.479959 23.256157
12.345506 15.509284 23.254789
12.345560 15.538639 23.251612
12.345599 15.567980 23.249346
12.345654 15.597335 23.246170
12.345694 15.626675 23.243904
12.345719 15.656001 23.242527
12.345744 15.685328 23.241158
12.345713 15.714595 23.243391
12.345681 15.743863 23.245632
12.345649 15.773131 23.247864
12.345617 15.802398 23.250105
12.345585 15.831666 23.252338
12.345539 15.860920 23.255480
12.345536 15.890216 23.255913
12.345519 15.919498 23.257244
12.345502 15.948782 23.258537
12.345499 15.978078 23.258968
12.345496 16.007376 23.259401
12.345508 16.036688 23.258924
12.345518 16.065998 23.258467
12.345544 16.095324 23.257099
12.345555 16.124634 23.256622
12.345580 16.153961 23.255245
12.345606 16.183287 23.253878
12.345632 16.212612 23.252510
12.345643 16.241924 23.252043
12.345682 16.271265 23.249767
12.345708 16.300591 23.248400
12.345705 16.329887 23.248831
12.345702 16.359186 23.249254
12.345714 16.388494 23.248796
12.345711 16.417793 23.249218
12.345722 16.447104 23.248751
12.345718 16.476400 23.249184
12.345716 16.505699 23.249577
12.345741 16.535023 23.248209
12.345767 16.564350 23.246832
12.345807 16.593691 23.244555
12.345833 16.623016 23.243187
12.345901 16.652386 23.239113
12.345970 16.681757 23.235035
12.346039 16.711124 23.230959
12.346093 16.740480 23.227781
12.346161 16.769848 23.223705
12.346216 16.799204 23.220518
12.373793 13.839475 23.223482
12.373775 13.868758 23.224813
12.373759 13.898040 23.226145
12.373741 13.927322 23.227488
12.373738 13.956618 23.227921
12.373720 13.985902 23.229254
12.373717 14.015199 23.229685
12.373699 14.044480 23.231028
12.373696 14.073776 23.231461
12.373693 14.103074 23.231892
12.373705 14.132385 23.231424
12.373715 14.161696 23.230957
12.373741 14.191023 23.229589
12.373753 14.220334 23.229122
12.373778 14.249660 23.227705
12.373790 14.278972 23.227238
12.373786 14.308269 23.227671
12.373783 14.337565 23.228113
12.373780 14.366862 23.228544
12.373720 14.396101 23.232586
12.373645 14.425325 23.237526
12.373585 14.454564 23.241560
12.373510 14.483788 23.246500
12.373449 14.513027 23.250542
12.373374 14.542251 23.255484
12.373314 14.571489 23.259523
12.373253 14.600728 23.263556
12.373251 14.630026 23.263948
12.373261 14.659337 23.263491
12.373259 14.688633 23.263912
12.373299 14.717975 23.261646
12.373323 14.747300 23.260279
12.373363 14.776640 23.258011
12.373404 14.805981 23.255735
12.373502 14.835381 23.249819
12.373555 14.864735 23.246653
12.373610 14.894090 23.243475
12.373651 14.923429 23.241209
12.373676 14.952757 23.239832
12.373716 14.982097 23.237564
12.373755 15.011436 23.235298
12.373838 15.040821 23.230322
12.373907 15.070190 23.226236
12.373976 15.099560 23.222168
12.374030 15.128915 23.218992
12.374084 15.158271 23.215805
12.374125 15.187611 23.213539
12.374165 15.216951 23.211262
12.374204 15.246292 23.208996
12.374201 15.275589 23.209427
12.374184 15.304871 23.210760
12.374094 15.334080 23.216610
12.374004 15.363290 23.222452
12.373845 15.392427 23.232771
12.373770 15.421651 23.237713
12.373681 15.450860 23.243553
12.373678 15.480158 23.243986
12.373674 15.509455 23.244417
12.373757 15.538839 23.239443
12.373826 15.568210 23.235365
12.373909 15.597593 23.230389
12.373978 15.626963 23.226303
12.374046 15.656332 23.222227
12.374115 15.685702 23.218149
12.374068 15.714954 23.221291
12.374022 15.744208 23.224434
12.373961 15.773447 23.228476
12.373887 15.802670 23.233416
12.373812 15.831895 23.238358
12.373722 15.861105 23.244198
12.373649 15.890328 23.249140
12.373573 15.919553 23.254080
12.373513 15.948793 23.258081
12.373510 15.978088 23.258514
12.373493 16.007372 23.259848
12.373505 16.036684 23.259369
12.373515 16.065994 23.258911
12.373541 16.095320 23.257545
12.373552 16.124630 23.257069
12.373592 16.153973 23.254791
12.373617 16.183298 23.253424
12.373657 16.212637 23.251156
12.373697 16.241980 23.248880
12.373723 16.271305 23.247503
12.373748 16.300631 23.246136
12.373774 16.329956 23.244768
12.373785 16.359268 23.244301
12.373797 16.388578 23.243822
12.373794 16.417877 23.244255
12.373791 16.447172 23.244688
12.373788 16.476469 23.245121
12.373785 16.505768 23.245514
12.373796 16.535078 23.245047
12.373807 16.564390 23.244577
12.373818 16.593702 23.244101
12.373830 16.623013 23.243633
12.373856 16.652338 23.242266
12.373866 16.681650 23.241800
12.373935 16.711020 23.237713
12.373989 16.740376 23.234535
12.374058 16.769743 23.230459
12.374112 16.799099 23.227283
12.401746 13.839428 23.226625
12.401743 13.868725 23.227070
12.401740 13.898022 23.227501
12.401737 13.927319 23.227934
12.401734 13.956614 23.228367
12.401731 13.985912 23.228798
12.401728 14.015209 23.229231
12.401711 14.044491 23.230564
12.401707 14.073788 23.230995
12.401704 14.103085 23.231438
12.401715 14.132396 23.230970
12.401711 14.161693 23.231401
12.401723 14.191005 23.230934
12.401734 14.220316 23.230467
12.401760 14.249642 23.229061
12.401772 14.278954 23.228584
12.401782 14.308265 23.228115
12.401779 14.337562 23.228558
12.401776 14.366858 23.228991
12.401716 14.396097 23.233032
12.401656 14.425337 23.237062
12.401595 14.454576 23.241104
12.401521 14.483799 23.246046
12.401460 14.513039 23.250088
12.401399 14.542276 23.254129
12.401339 14.571515 23.258160
12.401263 14.600739 23.263102
12.401276 14.630052 23.262594
12.401286 14.659363 23.262127
12.401283 14.688660 23.262558
12.401309 14.717986 23.261192
12.401335 14.747312 23.259825
12.401402 14.776681 23.255749
12.401471 14.806050 23.251682
12.401712 14.835595 23.236748
12.401824 14.865008 23.229963
12.401922 14.894406 23.224085
12.402020 14.923805 23.218201
12.402102 14.953190 23.213224
12.402157 14.982545 23.210049
12.402197 15.011885 23.207771
12.402208 15.041197 23.207302
12.402205 15.070494 23.207735
12.402202 15.099790 23.208179
12.402199 15.129086 23.208599
12.402195 15.158384 23.209044
12.402192 15.187680 23.209476
12.402189 15.216977 23.209908
12.402171 15.246260 23.211241
12.402168 15.275557 23.211674
12.402151 15.304839 23.213005
12.402147 15.334135 23.213448
12.402144 15.363433 23.213869
12.402143 15.392730 23.214272
12.402140 15.422027 23.214705
12.402137 15.451323 23.215136
12.402104 15.480592 23.217369
12.402073 15.509859 23.219610
12.402026 15.539112 23.222754
12.401966 15.568351 23.226793
12.401919 15.597604 23.229935
12.401859 15.626842 23.233967
12.401813 15.656096 23.237108
12.401752 15.685334 23.241150
12.401734 15.714616 23.242481
12.401717 15.743898 23.243814
12.401713 15.773196 23.244247
12.401696 15.802478 23.245579
12.401679 15.831760 23.246922
12.401661 15.861043 23.248253
12.401630 15.890310 23.250486
12.401584 15.919563 23.253626
12.401524 15.948804 23.257627
12.401492 15.978070 23.259859
12.401461 16.007339 23.262093
12.401443 16.036621 23.263424
12.401425 16.065903 23.264755
12.401451 16.095230 23.263390
12.401462 16.124540 23.262922
12.401487 16.153866 23.261555
12.401513 16.183193 23.260178
12.401596 16.212576 23.255201
12.401679 16.241961 23.250225
12.401762 16.271345 23.245249
12.401831 16.300713 23.241173
12.401899 16.330084 23.237095
12.401967 16.359453 23.233021
12.402037 16.388823 23.228943
12.402106 16.418192 23.224855
12.402102 16.447489 23.225288
12.402100 16.476786 23.225719
12.402097 16.506084 23.226112
12.402080 16.535364 23.227457
12.402061 16.564648 23.228788
12.402030 16.593916 23.231020
12.401983 16.623169 23.234161
12.401966 16.652451 23.235493
12.401949 16.681734 23.236826
12.402032 16.711117 23.231850
12.402115 16.740501 23.226864
12.402111 16.769798 23.227295
12.402108 16.799095 23.227728
12.429756 13.839439 23.226171
12.429739 13.868722 23.227514
12.429736 13.898019 23.227947
12.429733 13.927316 23.228380
12.429730 13.956612 23.228811
12.429727 13.985909 23.229244
12.429724 14.015206 23.229677
12.429721 14.044502 23.230108
12.429731 14.073813 23.229641
12.429729 14.103111 23.230074
12.429740 14.132422 23.229616
12.429750 14.161734 23.229147
12.429762 14.191046 23.228670
12.429773 14.220357 23.228205
12.429799 14.249682 23.226797
12.429811 14.278994 23.226330
12.429808 14.308291 23.226761
12.429804 14.337588 23.227194
12.429801 14.366884 23.227627
12.429741 14.396124 23.231668
12.429681 14.425363 23.235710
12.429605 14.454586 23.240650
12.429531 14.483809 23.245592
12.429470 14.513049 23.249632
12.429395 14.542273 23.254574
12.429320 14.571497 23.259516
12.429245 14.600721 23.264446
12.429214 14.629990 23.266649
12.429254 14.659330 23.264381
12.429294 14.688670 23.262106
12.429420 14.718099 23.254431
12.429545 14.747526 23.246754
12.429671 14.776954 23.239067
12.429783 14.806366 23.232292
12.430039 14.835926 23.216450
12.430121 14.865310 23.211473
12.430192 14.894679 23.207386
12.430160 14.923946 23.209629
12.430127 14.953215 23.211870
12.430096 14.982483 23.214104
12.430050 15.011736 23.217243
12.430017 15.041004 23.219484
12.429972 15.070257 23.222618
12.429996 15.099583 23.221251
12.430022 15.128908 23.219885
12.430077 15.158264 23.216698
12.430131 15.187618 23.213530
12.430185 15.216973 23.210354
12.430240 15.246329 23.207176
12.430294 15.275683 23.203999
12.430333 15.305024 23.201723
12.430316 15.334306 23.203066
12.430299 15.363589 23.204386
12.430225 15.392814 23.209297
12.430179 15.422067 23.212440
12.430133 15.451319 23.215582
12.430100 15.480588 23.217813
12.430069 15.509855 23.220057
12.430037 15.539123 23.222298
12.429991 15.568377 23.225430
12.429973 15.597658 23.226770
12.429955 15.626941 23.228104
12.429953 15.656237 23.228535
12.429935 15.685520 23.229868
12.429960 15.714845 23.228502
12.429972 15.744157 23.228024
12.430011 15.773498 23.225758
12.430037 15.802822 23.224390
12.430077 15.832164 23.222113
12.430102 15.861490 23.220736
12.430071 15.890757 23.222977
12.430025 15.920011 23.226109
12.429836 15.949120 23.238228
12.429747 15.978329 23.244068
12.429643 16.007524 23.250820
12.429554 16.036734 23.256660
12.429450 16.065928 23.263403
12.429447 16.095226 23.263836
12.429429 16.124506 23.265167
12.429455 16.153833 23.263800
12.429481 16.183161 23.262423
12.429521 16.212500 23.260155
12.429545 16.241825 23.258789
12.429585 16.271168 23.256512
12.429611 16.300491 23.255144
12.429666 16.329847 23.251968
12.429720 16.359203 23.248791
12.429746 16.388527 23.247423
12.429771 16.417854 23.246058
12.429797 16.447180 23.244680
12.429823 16.476505 23.243313
12.429863 16.505848 23.240995
12.429874 16.535158 23.240528
12.429872 16.564455 23.240959
12.429882 16.593767 23.240482
12.429879 16.623062 23.240915
12.429891 16.652374 23.240448
12.429887 16.681673 23.240881
12.429884 16.710968 23.241314
12.429881 16.740265 23.241745
12.429892 16.769575 23.241278
12.429889 16.798874 23.241701
12.457740 13.839421 23.227516
12.457737 13.868718 23.227961
12.457734 13.898015 23.228394
12.457731 13.927312 23.228825
12.457743 13.956623 23.228357
12.457739 13.985920 23.228790
12.457750 14.015231 23.228321
12.457747 14.044528 23.228754
12.457758 14.073839 23.228287
12.457755 14.103136 23.228720
12.457767 14.132447 23.228251
12.457777 14.161758 23.227785
12.457788 14.191071 23.227318
12.457800 14.220382 23.226851
12.457797 14.249679 23.227242
12.457794 14.278975 23.227674
12.457790 14.308273 23.228107
12.457788 14.337569 23.228539
12.457770 14.366852 23.229881
12.457710 14.396091 23.233923
12.457650 14.425329 23.237953
12.457603 14.454582 23.241096
12.457543 14.483821 23.245138
12.457482 14.513060 23.249180
12.457422 14.542298 23.253210
12.457390 14.571566 23.255453
12.457344 14.600819 23.258585
12.457384 14.630160 23.256277
12.457424 14.659501 23.254011
12.457463 14.688841 23.251743
12.457576 14.718255 23.244959
12.457687 14.747667 23.238182
12.457799 14.777081 23.231396
12.457911 14.806493 23.224621
12.458109 14.835995 23.212385
12.458192 14.865379 23.207399
12.458261 14.894749 23.203323
12.458243 14.924030 23.204655
12.458212 14.953299 23.206898
12.458179 14.982566 23.209139
12.458148 15.011833 23.211380
12.458116 15.041101 23.213614
12.458084 15.070370 23.215845
12.458110 15.099695 23.214478
12.458121 15.129006 23.214010
12.458160 15.158347 23.211733
12.458200 15.187688 23.209467
12.458241 15.217028 23.207190
12.458281 15.246368 23.204912
12.458335 15.275723 23.201736
12.458375 15.305064 23.199459
12.458385 15.334375 23.198992
12.458397 15.363687 23.198524
12.458425 15.393013 23.197107
12.458435 15.422324 23.196640
12.458447 15.451635 23.196173
12.458458 15.480947 23.195705
12.458454 15.510244 23.196138
12.458451 15.539540 23.196569
12.458448 15.568838 23.197002
12.458445 15.598135 23.197435
12.458442 15.627431 23.197866
12.458409 15.656699 23.200109
12.458364 15.685953 23.203239
12.458318 15.715204 23.206381
12.458271 15.744458 23.209534
12.458210 15.773698 23.213566
12.458150 15.802936 23.217607
12.458075 15.832160 23.222557
12.457999 15.861384 23.227499
12.457954 15.890636 23.230633
12.457894 15.919876 23.234673
12.457762 15.949043 23.243183
12.457716 15.978295 23.246325
12.457655 16.007534 23.250366
12.457609 16.036789 23.253498
12.457562 16.066040 23.256639
12.457531 16.095308 23.258883
12.457499 16.124575 23.261112
12.457510 16.153887 23.260635
12.457521 16.183199 23.260168
12.457547 16.212524 23.258802
12.457558 16.241837 23.258335
12.457626 16.271206 23.254257
12.457695 16.300575 23.250181
12.457764 16.329945 23.246103
12.457832 16.359316 23.242029
12.457888 16.388670 23.238852
12.457928 16.418011 23.236574
12.457968 16.447350 23.234299
12.457993 16.476677 23.232931
12.457962 16.505945 23.235123
12.457944 16.535227 23.236465
12.457912 16.564495 23.238697
12.457894 16.593779 23.240028
12.457877 16.623058 23.241360
12.457874 16.652357 23.241793
12.457856 16.681639 23.243135
12.457868 16.710949 23.242657
12.457865 16.740248 23.243090
12.457875 16.769558 23.242624
12.457872 16.798855 23.243055
12.485736 13.839417 23.227962
12.485719 13.868700 23.229303
12.485730 13.898011 23.228838
12.485727 13.927308 23.229271
12.485739 13.956619 23.228804
12.485735 13.985916 23.229235
12.485746 14.015227 23.228767
12.485744 14.044524 23.229200
12.485754 14.073835 23.228733
12.485765 14.103148 23.228264
12.485777 14.132459 23.227797
12.485773 14.161755 23.228231
12.485785 14.191067 23.227764
12.485782 14.220364 23.228195
12.485779 14.249660 23.228588
12.485790 14.278972 23.228121
12.485786 14.308270 23.228552
12.485784 14.337565 23.228985
12.485781 14.366862 23.229418
12.485764 14.396145 23.230759
12.485746 14.425427 23.232092
12.485729 14.454709 23.233423
12.485697 14.483976 23.235666
12.485636 14.513216 23.239708
12.485576 14.542455 23.243748
12.485516 14.571692 23.247780
12.485455 14.600931 23.251822
12.485423 14.630200 23.254025
12.485463 14.659540 23.251747
12.485489 14.688866 23.250380
12.485586 14.718266 23.244503
12.485683 14.747663 23.238628
12.485781 14.777061 23.232750
12.485878 14.806460 23.226866
12.486048 14.835933 23.216440
12.486131 14.865317 23.211454
12.486215 14.894701 23.206478
12.486268 14.924055 23.203302
12.486308 14.953397 23.201025
12.486362 14.982752 23.197847
12.486417 15.012106 23.194670
12.486443 15.041432 23.193304
12.486468 15.070759 23.191927
12.486479 15.100070 23.191460
12.486476 15.129366 23.191893
12.486473 15.158664 23.192324
12.486469 15.187961 23.192757
12.486466 15.217257 23.193199
12.486449 15.246540 23.194530
12.486445 15.275836 23.194963
12.486428 15.305119 23.196295
12.486425 15.334414 23.196728
12.486422 15.363712 23.197161
12.486435 15.393024 23.196651
12.486445 15.422336 23.196186
12.486443 15.451632 23.196619
12.486454 15.480944 23.196152
12.486450 15.510241 23.196583
12.486447 15.539536 23.197016
12.486444 15.568834 23.197449
12.486441 15.598131 23.197880
12.486423 15.627413 23.199213
12.486421 15.656710 23.199646
12.486403 15.685992 23.200987
12.486342 15.715230 23.205029
12.486267 15.744454 23.209978
12.486192 15.773680 23.214920
12.486117 15.802902 23.219862
12.486042 15.832127 23.224804
12.485952 15.861338 23.230646
12.485879 15.890560 23.235596
12.485789 15.919770 23.241438
12.485729 15.949010 23.245440
12.485669 15.978248 23.249479
12.485608 16.007486 23.253511
12.485577 16.036757 23.255753
12.485530 16.066008 23.258884
12.485498 16.095276 23.261126
12.485466 16.124542 23.263359
12.485463 16.153841 23.263790
12.485446 16.183123 23.265123
12.485485 16.212461 23.262856
12.485511 16.241789 23.261478
12.485594 16.271173 23.256502
12.485662 16.300543 23.252426
12.485745 16.329927 23.247450
12.485814 16.359297 23.243374
12.485884 16.388666 23.239296
12.485938 16.418020 23.236122
12.486007 16.447390 23.232044
12.486075 16.476759 23.227968
12.486101 16.506086 23.226551
12.486113 16.535397 23.226074
12.486124 16.564709 23.225607
12.486106 16.593992 23.226948
12.486074 16.623259 23.229181
12.486028 16.652512 23.232321
12.485982 16.681767 23.235453
12.485935 16.711018 23.238594
12.485889 16.740273 23.241737
12.485843 16.769524 23.244867
12.485797 16.798779 23.248009
12.513818 13.839500 23.223000
12.513815 13.868798 23.223433
12.513813 13.898095 23.223866
12.513809 13.927391 23.224297
12.513821 13.956702 23.223829
12.513818 13.986000 23.224272
12.513814 14.015296 23.224703
12.513811 14.044593 23.225136
12.513808 14.073890 23.225569
12.513804 14.103187 23.226000
12.513816 14.132498 23.225534
12.513813 14.161795 23.225967
12.513824 14.191107 23.225500
12.513821 14.220404 23.225931
12.513818 14.249701 23.226334
12.513815 14.278996 23.226767
12.513812 14.308294 23.227198
12.513794 14.337577 23.228531
12.513762 14.366844 23.230772
12.513745 14.396127 23.232105
12.513714 14.425394 23.234337
12.513696 14.454677 23.235680
12.513664 14.483944 23.237911
12.513647 14.513227 23.239254
12.513615 14.542494 23.241486
12.513612 14.571791 23.241919
12.513594 14.601073 23.243248
12.513635 14.630415 23.240942
12.513675 14.659755 23.238674
12.513700 14.689080 23.237297
12.513740 14.718421 23.235031
12.513780 14.747763 23.232763
12.513891 14.777176 23.225979
12.514003 14.806588 23.219194
12.514187 14.836076 23.207859
12.514284 14.865474 23.201971
12.514368 14.894858 23.196997
12.514451 14.924242 23.192009
12.514520 14.953612 23.187933
12.514517 14.982908 23.188366
12.514514 15.012205 23.188799
12.514510 15.041503 23.189230
12.514493 15.070785 23.190573
12.514489 15.100081 23.191006
12.514486 15.129377 23.191437
12.514483 15.158675 23.191870
12.514465 15.187958 23.193203
12.514462 15.217254 23.193644
12.514460 15.246552 23.194067
12.514456 15.275847 23.194510
12.514453 15.305144 23.194941
12.514464 15.334455 23.194475
12.514461 15.363753 23.194908
12.514503 15.393094 23.192581
12.514500 15.422391 23.193022
12.514496 15.451687 23.193455
