16.356789 14.787458 24.033800
16.356735 14.816581 24.038576
16.356682 14.845705 24.043350
16.356627 14.874828 24.048122
16.356575 14.903951 24.052906
16.356510 14.933037 24.058571
16.356491 14.962274 24.060665
16.356461 14.991471 24.063662
16.356245 15.020062 24.080923
16.356033 15.048655 24.098173
16.355820 15.077245 24.115425
16.355595 15.105799 24.133556
16.355324 15.134204 24.155243
16.355042 15.162568 24.177799
16.354748 15.190896 24.201244
16.354342 15.218848 24.233513
16.354208 15.247705 24.244490
16.353733 15.275431 24.282091
16.353258 15.303157 24.319653
16.353012 15.331638 24.339460
16.352755 15.360084 24.360149
16.352747 15.389359 24.361357
16.352739 15.418633 24.362564
16.352560 15.447343 24.377048
16.352371 15.476014 24.392410
16.352251 15.504912 24.402460
16.352118 15.533776 24.413387
16.352020 15.562749 24.421667
16.351919 15.591722 24.429947
16.351845 15.620772 24.436460
16.351759 15.649783 24.443840
16.351604 15.678571 24.456497
16.351540 15.707659 24.462111
16.351463 15.736707 24.468613
16.351410 15.765832 24.473356
16.351347 15.794918 24.478970
16.351294 15.824043 24.483702
16.351242 15.853168 24.488445
16.351233 15.882442 24.489653
16.351227 15.911720 24.490850
16.351254 15.941109 24.489412
16.351269 15.970458 24.488852
16.351330 15.999959 24.484762
16.351389 16.029461 24.480665
16.351461 16.058998 24.475689
16.351534 16.088537 24.470713
16.351572 16.117962 24.468384
16.351599 16.147350 24.466942
16.351692 16.176968 24.460150
16.351719 16.206354 24.458710
16.351734 16.235704 24.458138
16.351740 16.265018 24.458456
16.351744 16.294331 24.458784
16.351746 16.323645 24.459103
16.351749 16.352959 24.459433
16.351744 16.382233 24.460627
16.351736 16.411509 24.461834
16.379051 13.420637 24.451645
16.379044 13.449914 24.452852
16.379047 13.479226 24.453169
16.379042 13.508501 24.454376
16.379044 13.537814 24.454706
16.379036 13.567089 24.455904
16.379028 13.596364 24.457111
16.379023 13.625639 24.458319
16.379015 13.654916 24.459517
16.379040 13.684305 24.458035
16.379066 13.713693 24.456604
16.379128 13.743194 24.452518
16.379177 13.772656 24.449318
16.379238 13.802156 24.445232
16.379297 13.831656 24.441145
16.379358 13.861159 24.437056
16.379419 13.890659 24.432970
16.379457 13.920084 24.430651
16.379484 13.949471 24.429211
16.379499 13.978825 24.428610
16.379673 14.008701 24.415689
16.379848 14.038579 24.402773
16.380056 14.068570 24.387196
16.380253 14.098522 24.372499
16.380461 14.128513 24.356903
16.380669 14.158504 24.341307
16.381174 14.189479 24.302635
16.381613 14.220226 24.269287
16.382050 14.250976 24.235899
16.382315 14.281158 24.215797
16.382570 14.311305 24.196573
16.382780 14.341299 24.180897
16.382990 14.371294 24.165213
16.383200 14.401290 24.149515
16.383408 14.431285 24.133810
16.383400 14.460561 24.135027
16.383394 14.489836 24.136225
16.383558 14.519680 24.124075
16.383711 14.549486 24.112823
16.383875 14.579330 24.100664
16.384027 14.609138 24.089396
16.384157 14.638868 24.079903
16.384289 14.668600 24.070412
16.384361 14.698141 24.065374
16.384468 14.727798 24.057621
16.384506 14.757225 24.055260
16.384499 14.786500 24.056467
16.384481 14.815737 24.058565
16.384462 14.844975 24.060661
16.384441 14.874212 24.062757
16.384422 14.903449 24.064863
16.384405 14.932687 24.066961
16.384283 14.961581 24.077080
16.384161 14.990476 24.087208
16.384037 15.019371 24.097326
16.383915 15.048267 24.107445
16.383486 15.076137 24.141609
16.383055 15.104009 24.175755
16.382853 15.132642 24.192076
16.382650 15.161272 24.208399
16.382414 15.189790 24.227379
16.382065 15.217932 24.255190
16.381945 15.246828 24.265268
16.381481 15.274591 24.301960
16.381016 15.302357 24.338623
16.381010 15.331631 24.339819
16.381002 15.360907 24.341026
16.380779 15.389465 24.359058
16.380556 15.418022 24.377089
16.380342 15.446620 24.394211
16.380119 15.475177 24.412231
16.380043 15.504227 24.418734
16.379957 15.533241 24.426125
16.379881 15.562289 24.432636
16.379805 15.591339 24.439138
16.379728 15.620389 24.445652
16.379654 15.649437 24.452154
16.379602 15.678563 24.456858
16.379549 15.707689 24.461590
16.379484 15.736774 24.467215
16.379419 15.765862 24.472836
16.379345 15.794910 24.479330
16.379292 15.824036 24.484062
16.379229 15.853124 24.489685
16.379219 15.882398 24.490892
16.379213 15.911674 24.492100
16.379251 15.941101 24.489771
16.379278 15.970488 24.488331
16.379351 16.000027 24.483355
16.379410 16.029530 24.479256
16.379482 16.059067 24.474281
16.379555 16.088606 24.469305
16.379581 16.117992 24.467863
16.379608 16.147381 24.466413
16.379667 16.176884 24.462276
16.379683 16.206234 24.461716
16.379700 16.235584 24.461155
16.379704 16.264898 24.461472
16.379707 16.294210 24.461792
16.379709 16.323524 24.462118
16.379715 16.352839 24.462439
16.379753 16.382263 24.460108
16.379780 16.411652 24.458658
16.407038 13.420592 24.452883
16.407042 13.449906 24.453211
16.407045 13.479218 24.453529
16.407040 13.508493 24.454737
16.407042 13.537807 24.455065
16.407045 13.567120 24.455383
16.407049 13.596432 24.455711
16.407042 13.625707 24.456909
16.407059 13.655058 24.456358
16.407084 13.684447 24.454878
16.407099 13.713798 24.454317
16.407148 13.743260 24.451118
16.407198 13.772723 24.447912
16.407259 13.802224 24.443823
16.407307 13.831686 24.440626
16.407368 13.861189 24.436537
16.407417 13.890652 24.433331
16.407455 13.920076 24.431009
16.407494 13.949502 24.428690
16.407520 13.978892 24.427202
16.407536 14.008243 24.426640
16.407539 14.037555 24.426968
16.407600 14.067058 24.422871
16.407650 14.096520 24.419662
16.407936 14.126773 24.397923
16.408224 14.157026 24.376154
16.408297 14.186568 24.371126
16.408791 14.217502 24.333412
16.409273 14.248400 24.296547
16.409548 14.278618 24.275597
16.409815 14.308801 24.255524
16.410093 14.339021 24.234545
16.410360 14.369204 24.214443
16.410547 14.399122 24.200554
16.410732 14.429041 24.186647
16.410725 14.458317 24.187855
16.410717 14.487592 24.189062
16.410904 14.517511 24.175154
16.411091 14.547430 24.161247
16.411278 14.577350 24.147329
16.411453 14.607232 24.134291
16.411537 14.636810 24.128376
16.411621 14.666389 24.122458
16.411787 14.696236 24.110270
16.411846 14.725739 24.106123
16.411909 14.755241 24.101986
16.411913 14.784554 24.102303
16.411905 14.813829 24.103510
16.411900 14.843105 24.104708
16.411890 14.872381 24.105915
16.411882 14.901655 24.107122
16.411863 14.930894 24.109221
16.411777 14.959903 24.116659
16.411690 14.988912 24.124102
16.411394 15.017238 24.147575
16.411100 15.045566 24.171032
16.410866 15.074081 24.190022
16.410629 15.102599 24.209011
16.410372 15.131042 24.229769
16.410110 15.159485 24.250517
16.410036 15.188534 24.257038
16.409458 15.215921 24.302563
16.408962 15.243571 24.341883
16.408705 15.272017 24.362570
16.408434 15.300426 24.384129
16.408426 15.329699 24.385336
16.408421 15.358975 24.386534
16.408241 15.387685 24.401018
16.408064 15.416394 24.415482
16.407965 15.445368 24.423761
16.407856 15.474303 24.432911
16.407803 15.503428 24.437654
16.407740 15.532517 24.443277
16.407698 15.561679 24.447132
16.407656 15.590841 24.450987
16.407625 15.620042 24.453962
16.407595 15.649240 24.456928
16.407543 15.678368 24.461632
16.407492 15.707493 24.466366
16.407425 15.736579 24.471989
16.407373 15.765704 24.476723
16.407320 15.794827 24.481457
16.407312 15.824103 24.482664
16.407307 15.853379 24.483871
16.407297 15.882653 24.485069
16.407290 15.911929 24.486277
16.407351 15.941432 24.482189
16.407400 15.970894 24.478981
16.407473 16.000433 24.474003
16.407532 16.029936 24.469906
16.407581 16.059397 24.466698
16.407619 16.088823 24.464369
16.407658 16.118248 24.462040
16.407696 16.147675 24.459711
16.407734 16.177103 24.457331
16.407749 16.206451 24.456770
16.407764 16.235804 24.456209
16.407759 16.265079 24.457407
16.407751 16.294353 24.458614
16.407787 16.323782 24.456285
16.407814 16.353170 24.454834
16.407852 16.382595 24.452505
16.407879 16.411983 24.451065
16.435024 13.420547 24.454123
16.435028 13.449860 24.454449
16.435043 13.479211 24.453888
16.435047 13.508523 24.454218
16.435051 13.537837 24.454535
16.435055 13.567149 24.454865
16.435059 13.596461 24.455181
16.435051 13.625736 24.456390
16.435057 13.655050 24.456717
16.435070 13.684402 24.456116
16.435085 13.713753 24.455555
16.435135 13.743216 24.452356
16.435173 13.772641 24.450037
16.435223 13.802103 24.446838
16.435259 13.831529 24.444510
16.435331 13.861069 24.439543
16.435392 13.890569 24.435457
16.435453 13.920069 24.431370
16.435503 13.949532 24.428162
16.435551 13.978997 24.424911
16.435568 14.008348 24.424351
16.435583 14.037698 24.423790
16.435587 14.067012 24.424120
16.435579 14.096287 24.425327
16.435776 14.126239 24.410641
16.435972 14.156191 24.395952
16.436409 14.186937 24.362644
16.436674 14.217116 24.342623
16.436941 14.247296 24.322592
16.437159 14.277327 24.306086
16.437380 14.307358 24.289570
16.437601 14.337388 24.273045
16.437820 14.367418 24.256521
16.438007 14.397337 24.242641
16.438192 14.427255 24.228756
16.438391 14.457211 24.213978
16.438589 14.487167 24.199202
16.438583 14.516443 24.200399
16.438576 14.545718 24.201616
16.438749 14.575599 24.188599
16.438925 14.605480 24.175579
16.439043 14.635172 24.167006
16.439152 14.664827 24.159313
16.439259 14.694483 24.151579
16.439226 14.723682 24.154566
16.439186 14.752844 24.158438
16.439144 14.782005 24.162313
16.439102 14.811166 24.166187
16.439062 14.840328 24.170063
16.439007 14.869452 24.174828
16.438953 14.898576 24.179590
16.438900 14.927699 24.184355
16.438871 14.956899 24.187340
16.438841 14.986097 24.190325
16.438614 15.014652 24.208427
16.438379 15.043171 24.227396
16.438168 15.071764 24.244587
16.437943 15.100321 24.262669
16.437696 15.128802 24.282495
16.437449 15.157285 24.302336
16.436974 15.185014 24.339827
16.436762 15.213610 24.356979
16.436539 15.242167 24.375000
16.436533 15.271443 24.376198
16.436523 15.300719 24.377405
16.436367 15.329503 24.390121
16.436201 15.358251 24.403706
16.436069 15.387113 24.414633
16.435938 15.415972 24.425560
16.435848 15.444984 24.432953
16.435751 15.473957 24.441221
16.435711 15.503119 24.445078
16.435669 15.532284 24.448940
16.435650 15.561521 24.451029
16.435631 15.590758 24.453114
16.435577 15.619884 24.457859
16.435514 15.648970 24.463470
16.435406 15.677909 24.472580
16.435352 15.707034 24.477314
16.435287 15.736120 24.482939
16.435223 15.765207 24.488562
16.435160 15.794293 24.494173
16.435152 15.823569 24.495380
16.435133 15.852807 24.497469
16.435160 15.882194 24.496027
16.435186 15.911583 24.494577
16.435247 15.941086 24.490490
16.435297 15.970548 24.487282
16.435369 16.000088 24.482306
16.435440 16.029627 24.477329
16.435522 16.059200 24.471472
16.435595 16.088739 24.466497
16.435644 16.118202 24.463278
16.435684 16.147629 24.460949
16.435755 16.177170 24.455923
16.435770 16.206520 24.455362
16.435774 16.235832 24.455679
16.435780 16.265146 24.455999
16.435772 16.294420 24.457207
16.435762 16.323698 24.458414
16.435755 16.352974 24.459620
16.435749 16.382248 24.460827
16.435741 16.411524 24.462034
16.463011 13.420502 24.455370
16.463060 13.449965 24.452162
16.463064 13.479279 24.452492
16.463057 13.508553 24.453699
16.463060 13.537867 24.454016
16.463053 13.567142 24.455223
16.463057 13.596454 24.455542
16.463060 13.625766 24.455870
16.463066 13.655080 24.456188
16.463091 13.684470 24.454708
16.463095 13.713782 24.455036
16.463156 13.743283 24.450949
16.463205 13.772746 24.447750
16.463266 13.802246 24.443663
16.463314 13.831709 24.440464
16.463375 13.861211 24.436378
16.463436 13.890712 24.432289
16.463497 13.920212 24.428202
16.463558 13.949712 24.424116
16.463583 13.979103 24.422625
16.463589 14.008415 24.422943
16.463593 14.037727 24.423271
16.463585 14.067004 24.424479
16.463577 14.096279 24.425686
16.463579 14.125591 24.426004
16.463573 14.154866 24.427212
16.464077 14.185837 24.388638
16.464069 14.215112 24.389845
16.464052 14.244349 24.391933
16.464588 14.275434 24.350702
16.465128 14.306520 24.309422
16.465120 14.335794 24.310629
16.465113 14.365068 24.311834
16.465322 14.395061 24.296209
16.465530 14.425055 24.280575
16.465672 14.454822 24.270252
16.465801 14.484550 24.260809
16.465908 14.514203 24.253147
16.466015 14.543857 24.245483
16.466154 14.573623 24.235151
16.466295 14.603391 24.224810
16.466425 14.633120 24.215359
16.466555 14.662849 24.205906
16.466730 14.692732 24.192848
16.466768 14.722159 24.190498
16.466795 14.751548 24.189039
16.466787 14.780823 24.190247
16.466780 14.810097 24.191454
16.466774 14.839374 24.192650
16.466753 14.868611 24.194746
16.466619 14.897469 24.205734
16.466476 14.926291 24.217602
16.466469 14.955565 24.218809
16.466461 14.984839 24.220016
16.466133 15.013055 24.246090
16.465807 15.041271 24.272152
16.465527 15.069638 24.294638
16.465235 15.097970 24.318012
16.465227 15.127246 24.319210
16.465218 15.156522 24.320417
16.464893 15.184742 24.346390
16.464725 15.213490 24.359985
16.464560 15.242235 24.373590
16.464405 15.271021 24.386297
16.464237 15.299769 24.399881
16.464161 15.328817 24.406393
16.464075 15.357829 24.413786
16.463999 15.386879 24.420298
16.463924 15.415927 24.426800
16.463846 15.444977 24.433311
16.463760 15.473987 24.440702
16.463720 15.503150 24.444557
16.463667 15.532274 24.449301
16.463636 15.561476 24.452267
16.463594 15.590638 24.456123
16.463564 15.619839 24.459099
16.463535 15.649037 24.462074
16.463415 15.677938 24.472061
16.463350 15.707026 24.477674
16.463285 15.736113 24.483297
16.463221 15.765200 24.488920
16.463158 15.794286 24.494534
16.463093 15.823373 24.500156
16.463030 15.852461 24.505770
16.463078 15.881923 24.502560
16.463116 15.911349 24.500242
16.463188 15.940890 24.495264
16.463249 15.970389 24.491179
16.463333 15.999967 24.485313
16.463404 16.029507 24.480335
16.463476 16.059044 24.475359
16.463549 16.088583 24.470383
16.463598 16.118044 24.467173
16.463636 16.147470 24.464844
16.463684 16.176937 24.461588
16.463711 16.206324 24.460148
16.463726 16.235674 24.459576
16.463743 16.265026 24.459015
16.463758 16.294374 24.458454
16.463749 16.323652 24.459661
16.463741 16.352928 24.460871
16.463781 16.382353 24.458529
16.463808 16.411741 24.457081
16.490973 13.420382 24.458366
16.491022 13.449844 24.455168
16.491037 13.479196 24.454607
16.491041 13.508508 24.454937
16.491056 13.537859 24.454376
16.491060 13.567172 24.454693
16.491064 13.596483 24.455030
16.491068 13.625796 24.455351
16.491072 13.655109 24.455677
16.491064 13.684387 24.456835
16.491056 13.713662 24.458042
16.491062 13.742975 24.458363
16.491066 13.772287 24.458689
16.491127 13.801787 24.454603
16.491175 13.831250 24.451405
16.491236 13.860752 24.447317
16.491297 13.890253 24.443228
16.491358 13.919753 24.439140
16.491417 13.949254 24.435055
16.491533 13.978945 24.426512
16.491539 14.008257 24.426838
16.491543 14.037569 24.427168
16.491535 14.066846 24.428366
16.491528 14.096121 24.429573
16.491531 14.125433 24.429901
16.491524 14.154708 24.431108
16.491528 14.184023 24.431387
16.491737 14.214013 24.415819
16.491945 14.244002 24.400244
16.492153 14.273993 24.384659
16.492350 14.303947 24.369951
16.492580 14.334014 24.352587
16.492813 14.364080 24.335213
16.493023 14.394073 24.319597
16.493217 14.424027 24.304859
16.493212 14.453301 24.306067
16.493204 14.482577 24.307274
16.493345 14.512344 24.296953
16.493475 14.542072 24.287531
16.493568 14.571687 24.280756
16.493652 14.601265 24.274870
16.493759 14.630918 24.267208
16.493866 14.660572 24.259533
16.494007 14.690340 24.249170
16.494066 14.719843 24.245045
16.494129 14.749344 24.240927
16.494167 14.778770 24.238579
16.494205 14.808196 24.236238
16.494152 14.837321 24.240992
16.494099 14.866446 24.245747
16.494034 14.895532 24.251389
16.493959 14.924580 24.257921
16.493895 14.953666 24.263563
16.493818 14.982714 24.270096
16.493731 15.011724 24.277508
16.493631 15.040697 24.285818
16.493557 15.069744 24.292341
16.493469 15.098756 24.299751
16.492994 15.126483 24.337292
16.492519 15.154212 24.374794
16.492514 15.183490 24.375961
16.492302 15.212087 24.393093
16.492090 15.240683 24.410215
16.491959 15.269545 24.421133
16.491812 15.298368 24.432949
16.491795 15.327604 24.435036
16.491764 15.356805 24.438011
16.491745 15.386043 24.440096
16.491728 15.415279 24.442184
16.491684 15.444442 24.446039
16.491632 15.473565 24.450783
16.491590 15.502728 24.454638
16.491539 15.531854 24.459370
16.491508 15.561053 24.462345
16.491465 15.590217 24.466202
16.491425 15.619379 24.470057
16.491383 15.648540 24.473900
16.491320 15.677630 24.479485
16.491278 15.706793 24.483339
16.491236 15.735953 24.487194
16.491205 15.765155 24.490158
16.491165 15.794315 24.494015
16.491146 15.823554 24.496099
16.491116 15.852755 24.499065
16.491163 15.882216 24.495869
16.491203 15.911642 24.493538
16.491253 15.941108 24.490332
16.491302 15.970571 24.487122
16.491375 16.000109 24.482145
16.491434 16.029612 24.478048
16.491493 16.059111 24.473959
16.491556 16.088612 24.469862
16.491571 16.117962 24.469301
16.491587 16.147312 24.468740
16.491646 16.176817 24.464594
16.491661 16.206165 24.464033
16.491678 16.235516 24.463470
16.491705 16.264904 24.462032
16.491720 16.294254 24.461462
16.491779 16.323757 24.457363
16.491829 16.353222 24.454145
16.491879 16.382685 24.450937
16.491917 16.412111 24.448608
16.518959 13.420336 24.459606
16.519009 13.449800 24.456408
16.519024 13.479151 24.455847
16.519039 13.508500 24.455296
16.519054 13.537851 24.454735
16.519058 13.567164 24.455053
16.519062 13.596476 24.455391
16.519066 13.625789 24.455709
16.519070 13.655102 24.456038
16.519073 13.684417 24.456316
16.519066 13.713692 24.457514
16.519060 13.742968 24.458721
16.519053 13.772243 24.459929
16.519068 13.801593 24.459368
16.519070 13.830905 24.459694
16.519119 13.860368 24.456497
16.519169 13.889832 24.453289
16.519241 13.919370 24.448322
16.519314 13.948908 24.443356
16.519464 13.978711 24.432165
16.519526 14.008212 24.428078
16.519575 14.037675 24.424870
16.519590 14.067027 24.424309
16.519594 14.096339 24.424637
16.519585 14.125614 24.425844
16.519567 14.154851 24.427931
16.519548 14.184091 24.429977
16.519598 14.213553 24.426769
16.519648 14.243017 24.423561
16.519707 14.272518 24.419462
16.519768 14.302020 24.415377
16.520090 14.332386 24.390959
16.520412 14.362754 24.366531
16.520407 14.392029 24.367739
16.520397 14.421304 24.368946
16.520742 14.451747 24.342731
16.521088 14.482193 24.316486
16.521080 14.511468 24.317694
16.521074 14.540743 24.318901
16.521202 14.570471 24.309477
16.521332 14.600200 24.300047
16.521416 14.629777 24.294168
16.521500 14.659354 24.288275
16.521629 14.689085 24.278803
16.521631 14.718398 24.279121
16.521637 14.747711 24.279438
16.521641 14.777023 24.279757
16.521633 14.806298 24.280964
16.521626 14.835574 24.282171
16.521618 14.864850 24.283379
16.521610 14.894125 24.284576
16.521591 14.923363 24.286673
16.521437 14.952146 24.299408
16.521280 14.980930 24.312134
16.521273 15.010204 24.313341
16.521265 15.039480 24.314548
16.521122 15.068301 24.326387
16.520977 15.097124 24.338223
16.520823 15.125909 24.350939
16.520655 15.154657 24.364534
16.520273 15.182690 24.394901
16.520174 15.211664 24.403183
16.520077 15.240637 24.411453
16.519989 15.269650 24.418844
16.519901 15.298661 24.426237
16.519827 15.327709 24.432749
16.519751 15.356759 24.439249
16.519720 15.385960 24.442225
16.519680 15.415121 24.446081
16.519625 15.444246 24.450815
16.519562 15.473331 24.456436
16.519520 15.502495 24.460291
16.519468 15.531620 24.465025
16.519426 15.560782 24.468882
16.519373 15.589908 24.473625
16.519331 15.619071 24.477468
16.519279 15.648194 24.482203
16.519238 15.677360 24.486017
16.519209 15.706559 24.488993
16.519176 15.735759 24.491959
16.519159 15.764997 24.494045
16.519129 15.794195 24.497021
16.519167 15.823622 24.494692
16.519205 15.853047 24.492371
16.519264 15.882547 24.488276
16.519325 15.912048 24.484188
16.519386 15.941552 24.480091
16.519436 15.971014 24.476883
16.519508 16.000553 24.471905
16.519567 16.030054 24.467819
16.519583 16.059404 24.467247
16.519598 16.088755 24.466686
16.519615 16.118105 24.466124
16.519630 16.147455 24.465563
16.519667 16.176884 24.463184
16.519682 16.206234 24.462624
16.519688 16.235546 24.462952
16.519703 16.264896 24.462391
16.519718 16.294247 24.461821
16.519732 16.323597 24.461260
16.519735 16.352913 24.461590
16.519741 16.382225 24.461906
16.519745 16.411539 24.462223
16.546982 13.420403 24.458208
16.546974 13.449679 24.459406
16.546980 13.478992 24.459732
16.546984 13.508305 24.460060
16.546986 13.537619 24.460381
16.546978 13.566894 24.461588
16.546982 13.596206 24.461914
16.546988 13.625518 24.462234
16.546991 13.654831 24.462561
16.547005 13.684184 24.461960
16.546999 13.713459 24.463167
16.547003 13.742772 24.463486
16.546995 13.772047 24.464693
16.547022 13.801435 24.463253
16.547035 13.830784 24.462704
16.547108 13.860323 24.457737
16.547169 13.889824 24.453648
16.547241 13.919362 24.448683
16.547302 13.948862 24.444593
16.547453 13.978666 24.433414
16.547514 14.008166 24.429325
16.547575 14.037667 24.425228
16.547579 14.066980 24.425558
16.547583 14.096293 24.425877
16.547585 14.125607 24.426203
16.547579 14.154881 24.427410
16.547560 14.184121 24.429447
16.547554 14.213396 24.430655
16.547535 14.242633 24.432751
16.547525 14.271909 24.433949
16.547520 14.301185 24.435156
16.547579 14.330685 24.431068
16.547628 14.360147 24.427860
16.547701 14.389687 24.422886
16.547760 14.419188 24.418787
16.547890 14.448914 24.409405
16.548019 14.478642 24.400002
16.548149 14.508369 24.390600
16.548277 14.538096 24.381197
16.548370 14.567710 24.374453
16.548454 14.597287 24.368578
16.548595 14.627052 24.358286
16.548725 14.656779 24.348873
16.548855 14.686509 24.339413
16.548925 14.716049 24.334415
16.548986 14.745550 24.330318
16.549036 14.775014 24.327089
16.549074 14.804440 24.324751
16.549068 14.833715 24.325958
16.549059 14.862990 24.327166
16.549028 14.892191 24.330141
16.549000 14.921391 24.333117
16.548946 14.950515 24.337872
16.548883 14.979601 24.343494
16.548817 15.008687 24.349127
16.548752 15.037775 24.354759
16.548677 15.066822 24.361280
16.548601 15.095872 24.367792
16.548504 15.124846 24.376085
16.548393 15.153780 24.385252
16.548239 15.182570 24.397911
16.548151 15.211582 24.405300
16.548054 15.240554 24.413582
16.547977 15.269604 24.420094
16.547901 15.298654 24.426596
16.547859 15.327815 24.430450
16.547819 15.356977 24.434303
16.547766 15.386103 24.439047
16.547714 15.415226 24.443792
16.547670 15.444388 24.447647
16.547630 15.473550 24.451502
16.547600 15.502750 24.454468
16.547558 15.531914 24.458321
16.547529 15.561113 24.461296
16.547497 15.590314 24.464272
16.547489 15.619590 24.465469
16.547483 15.648864 24.466677
16.547476 15.678142 24.467844
16.547470 15.707417 24.469051
16.547461 15.736691 24.470249
16.547464 15.766005 24.470579
16.547457 15.795279 24.471777
16.547474 15.824630 24.471216
16.547489 15.853981 24.470654
16.547514 15.883368 24.469213
16.547529 15.912719 24.468653
16.547556 15.942107 24.467203
16.547583 15.971496 24.465761
16.547611 16.000885 24.464314
16.547636 16.030273 24.462873
16.547651 16.059622 24.462313
16.547655 16.088936 24.462629
16.547670 16.118284 24.462069
16.547676 16.147598 24.462387
16.547701 16.176989 24.460897
16.547716 16.206339 24.460337
16.547720 16.235651 24.460653
16.547737 16.265003 24.460093
16.547741 16.294315 24.460413
16.547777 16.323742 24.458082
16.547804 16.353132 24.456633
16.547842 16.382557 24.454304
16.547869 16.411945 24.452864
16.574980 13.420396 24.458567
16.574972 13.449672 24.459764
16.574978 13.478984 24.460093
16.574982 13.508297 24.460421
16.574984 13.537611 24.460739
16.574987 13.566923 24.461067
16.574991 13.596235 24.461386
16.574986 13.625510 24.462593
16.574989 13.654823 24.462921
16.574982 13.684101 24.464079
16.574974 13.713376 24.465286
16.574966 13.742652 24.466494
16.574959 13.771927 24.467699
16.574976 13.801276 24.467138
16.574978 13.830589 24.467468
16.575005 13.859978 24.466028
16.575031 13.889366 24.464586
16.575104 13.918903 24.459621
16.575176 13.948442 24.454655
16.575336 13.978283 24.442596
16.575409 14.007821 24.437618
16.575481 14.037358 24.432652
16.575531 14.066822 24.429443
16.575581 14.096286 24.426237
16.575571 14.125561 24.427443
16.575565 14.154836 24.428650
16.575546 14.184075 24.430696
16.575529 14.213313 24.432783
16.575510 14.242550 24.434870
16.575500 14.271826 24.436077
16.575483 14.301064 24.438162
16.575533 14.330527 24.434956
16.575571 14.359952 24.432636
16.575621 14.389416 24.429428
16.575668 14.418879 24.426220
16.575741 14.448417 24.421242
16.575802 14.477919 24.417145
16.575874 14.507458 24.412169
16.575947 14.536996 24.407192
16.576029 14.566572 24.401327
16.576101 14.596111 24.396349
16.576183 14.625688 24.390484
16.576256 14.655227 24.385498
16.576397 14.684994 24.375166
16.576458 14.714496 24.371059
16.576519 14.743997 24.366961
16.576511 14.773272 24.368168
16.576504 14.802547 24.369375
16.576496 14.831821 24.370583
16.576477 14.861059 24.372671
16.576469 14.890335 24.373878
16.576450 14.919573 24.375963
16.576445 14.948848 24.377171
16.576426 14.978085 24.379259
16.576405 15.007322 24.381344
16.576387 15.036560 24.383442
16.576334 15.065683 24.388186
16.576281 15.094809 24.392929
16.576241 15.123971 24.396784
16.576185 15.153094 24.401527
16.576065 15.181997 24.411526
16.576014 15.211123 24.416269
16.575960 15.240245 24.421013
16.575932 15.269446 24.423979
16.575899 15.298646 24.426956
16.575857 15.327807 24.430809
16.575817 15.356970 24.434664
16.575787 15.386170 24.437641
16.575758 15.415369 24.440617
16.575726 15.444570 24.443592
16.575684 15.473731 24.447435
16.575655 15.502931 24.450411
16.575613 15.532094 24.454266
16.575596 15.561332 24.456354
16.575575 15.590569 24.458448
16.575544 15.619771 24.461414
16.575516 15.648969 24.464390
16.575407 15.677908 24.473499
16.575354 15.707033 24.478233
16.575300 15.736157 24.482967
16.575247 15.765282 24.487711
16.575195 15.794406 24.492445
16.575222 15.823794 24.490995
16.575237 15.853146 24.490435
16.575296 15.882645 24.486347
16.575357 15.912147 24.482258
16.575441 15.941723 24.476395
16.575514 15.971263 24.471416
16.575586 16.000801 24.466440
16.575657 16.030340 24.461464
16.575684 16.059729 24.460014
16.575699 16.089079 24.459454
16.575714 16.118427 24.458893
16.575718 16.147741 24.459209
16.575733 16.177094 24.458611
16.575737 16.206406 24.458927
16.575729 16.235682 24.460135
16.575735 16.264996 24.460453
16.575739 16.294308 24.460772
16.575741 16.323620 24.461100
16.575745 16.352936 24.461418
16.575750 16.382248 24.461735
16.575754 16.411560 24.462065
16.602989 13.420426 24.458036
16.602982 13.449702 24.459244
16.602985 13.479014 24.459572
16.602991 13.508327 24.459892
16.602993 13.537641 24.460218
16.602997 13.566954 24.460539
16.603001 13.596266 24.460865
16.603006 13.625578 24.461195
16.603010 13.654891 24.461512
16.603012 13.684206 24.461800
16.603006 13.713481 24.462997
16.602999 13.742757 24.464205
16.602980 13.771995 24.466291
16.602974 13.801269 24.467499
16.602953 13.830506 24.469585
16.602968 13.859858 24.469025
16.602983 13.889208 24.468473
16.603056 13.918746 24.463507
16.603128 13.948283 24.458540
16.603323 13.978237 24.443834
16.603453 14.007963 24.434452
16.603571 14.037652 24.425947
16.603676 14.067304 24.418335
16.603783 14.096955 24.410709
16.603796 14.126306 24.410149
16.603813 14.155656 24.409588
16.603806 14.184933 24.410755
16.603765 14.214095 24.414612
16.603724 14.243258 24.418455
16.603682 14.272419 24.422310
16.603628 14.301545 24.427053
16.603621 14.330820 24.428251
16.603603 14.360058 24.430338
16.603584 14.389296 24.432434
16.603563 14.418532 24.434521
16.603558 14.447808 24.435717
16.603539 14.477046 24.437815
16.603588 14.506510 24.434607
16.603626 14.535935 24.432278
16.603674 14.565398 24.429068
16.603712 14.594824 24.426741
16.603762 14.624288 24.423531
16.603811 14.653750 24.420324
16.603930 14.683441 24.411772
16.603931 14.712755 24.412088
16.603937 14.742068 24.412405
16.603941 14.771380 24.412735
16.603933 14.800654 24.413942
16.603926 14.829930 24.415150
16.603918 14.859205 24.416348
16.603910 14.888481 24.417555
16.603903 14.917757 24.418762
16.603897 14.947032 24.419970
16.603889 14.976307 24.421167
16.603880 15.005582 24.422375
16.603872 15.034858 24.423582
16.603867 15.064131 24.424789
16.603859 15.093408 24.425987
16.603863 15.122721 24.426313
16.603855 15.151994 24.427521
16.603836 15.181236 24.429567
16.603828 15.210511 24.430775
16.603823 15.239786 24.431973
16.603804 15.269024 24.434059
16.603783 15.298262 24.436155
16.603765 15.327498 24.438242
16.603735 15.356699 24.441217
16.603716 15.385937 24.443304
16.603687 15.415135 24.446280
16.603655 15.444336 24.449245
16.603626 15.473535 24.452221
16.603607 15.502772 24.454308
16.603577 15.531974 24.457272
16.603559 15.561212 24.459370
16.603539 15.590449 24.461456
16.603519 15.619688 24.463543
16.603502 15.648924 24.465628
16.603437 15.678013 24.471212
16.603409 15.707214 24.474176
16.603376 15.736412 24.477154
16.603348 15.765613 24.480129
16.603317 15.794811 24.483093
16.603344 15.824200 24.481653
16.603359 15.853551 24.481092
16.603407 15.883014 24.477875
16.603445 15.912439 24.475555
16.603506 15.941941 24.471458
16.603556 15.971405 24.468248
16.603617 16.000906 24.464153
16.603666 16.030371 24.460934
16.603682 16.059721 24.460373
16.603685 16.089033 24.460703
16.603689 16.118345 24.461020
16.603682 16.147621 24.462227
16.603674 16.176899 24.463385
16.603678 16.206211 24.463701
16.603672 16.235485 24.464909
16.603687 16.264837 24.464348
16.603691 16.294149 24.464668
16.603693 16.323462 24.464994
16.603687 16.352739 24.466192
16.603691 16.382051 24.466522
16.603695 16.411366 24.466839
16.630962 13.420343 24.460165
16.630966 13.449656 24.460484
16.630981 13.479007 24.459932
16.630987 13.508320 24.460251
16.630989 13.537633 24.460579
16.630981 13.566908 24.461786
16.630985 13.596220 24.462105
16.630980 13.625495 24.463312
16.630983 13.654808 24.463640
16.630976 13.684085 24.464798
16.630957 13.713324 24.466885
16.630949 13.742599 24.468092
16.630930 13.771836 24.470179
16.630936 13.801148 24.470507
16.630926 13.830423 24.471714
16.630930 13.859736 24.472031
16.630934 13.889050 24.472349
16.630962 13.918438 24.470919
16.630989 13.947825 24.469481
16.631149 13.977666 24.457418
16.631279 14.007392 24.448048
16.631397 14.037080 24.439545
16.631525 14.066807 24.430162
16.631643 14.096497 24.421659
16.631760 14.126185 24.413157
16.631865 14.155836 24.405533
16.631983 14.185528 24.396980
16.632000 14.214878 24.396420
16.632004 14.244190 24.396736
16.631994 14.273465 24.397943
16.631975 14.302705 24.400032
16.631924 14.331828 24.404776
16.631870 14.360953 24.409508
16.631807 14.390040 24.415133
16.631731 14.419089 24.421635
16.631666 14.448176 24.427256
16.631592 14.477225 24.433760
16.631538 14.506351 24.438492
16.631475 14.535439 24.444117
16.631512 14.564863 24.441786
16.631538 14.594252 24.440348
16.631588 14.623715 24.437138
16.631638 14.653178 24.433929
16.631744 14.682832 24.426266
16.631792 14.712296 24.423048
16.631842 14.741759 24.419838
16.631834 14.771033 24.421045
16.631828 14.800308 24.422253
16.631821 14.829584 24.423460
16.631811 14.858859 24.424658
16.631804 14.888135 24.425865
16.631798 14.917411 24.427073
16.631802 14.946723 24.427393
16.631805 14.976035 24.427719
16.631819 15.005385 24.427149
16.631836 15.034737 24.426598
16.631851 15.064086 24.426027
16.631866 15.093437 24.425465
16.631916 15.122901 24.422258
16.631964 15.152364 24.419039
16.631981 15.181718 24.418438
16.631973 15.210994 24.419647
16.631966 15.240268 24.420855
16.631891 15.269318 24.427355
16.631813 15.298368 24.433857
16.631704 15.327303 24.443016
16.631596 15.356239 24.452168
16.631508 15.385252 24.459558
16.631422 15.414262 24.466948
16.631334 15.443274 24.474329
16.631247 15.472285 24.481712
16.631218 15.501486 24.484688
16.631187 15.530686 24.487652
16.631168 15.559923 24.489740
16.631149 15.589163 24.491825
16.631130 15.618402 24.493914
16.631111 15.647637 24.495998
16.631105 15.676915 24.497166
16.631109 15.706228 24.497484
16.631102 15.735502 24.498692
16.631117 15.764853 24.498129
16.631121 15.794165 24.498459
16.631193 15.823704 24.493483
16.631254 15.853205 24.489395
16.631325 15.882742 24.484419
16.631397 15.912282 24.479441
16.631470 15.941821 24.474464
16.631542 15.971360 24.469488
16.631603 16.000862 24.465391
16.631662 16.030363 24.461294
16.631678 16.059713 24.460733
16.631681 16.089025 24.461061
16.631685 16.118338 24.461380
16.631678 16.147614 24.462587
16.631693 16.176966 24.461977
16.631697 16.206278 24.462305
16.631691 16.235554 24.463501
16.631695 16.264866 24.463829
16.631687 16.294142 24.465027
16.631678 16.323416 24.466234
16.631672 16.352692 24.467442
16.631676 16.382006 24.467760
16.631680 16.411320 24.468079
16.658926 13.420223 24.463163
16.658964 13.449649 24.460844
16.658979 13.478999 24.460291
16.658985 13.508312 24.460611
16.658998 13.537663 24.460060
16.659002 13.566976 24.460386
16.658995 13.596251 24.461584
16.658989 13.625525 24.462791
16.658993 13.654839 24.463112
16.658983 13.684115 24.464279
16.658978 13.713390 24.465485
16.658970 13.742666 24.466692
16.658962 13.771941 24.467899
16.658957 13.801216 24.469097
16.658947 13.830491 24.470304
16.658951 13.859804 24.470633
16.658943 13.889079 24.471840
16.658960 13.918430 24.471279
16.658964 13.947742 24.471598
16.659124 13.977584 24.459538
16.659231 14.007234 24.451933
16.659338 14.036884 24.444321
16.659445 14.066537 24.436697
16.659550 14.096188 24.429083
16.659678 14.125914 24.419701
16.659807 14.155641 24.410307
16.659937 14.185369 24.400877
16.659952 14.214720 24.400305
16.659956 14.244032 24.400633
16.659969 14.273382 24.400072
16.659973 14.302697 24.400391
16.659910 14.331783 24.406013
16.659836 14.360832 24.412516
16.659771 14.389920 24.418139
16.659695 14.418969 24.424650
16.659653 14.448131 24.428495
16.659601 14.477255 24.433239
16.659559 14.506419 24.437084
16.659517 14.535582 24.440939
16.659521 14.564894 24.441267
16.659525 14.594207 24.441586
16.659586 14.623708 24.437496
16.659636 14.653171 24.434290
16.659765 14.682899 24.424856
16.659813 14.712363 24.421638
16.659863 14.741827 24.418430
16.659912 14.771290 24.415222
16.659950 14.800714 24.412893
16.659943 14.829990 24.414101
16.659935 14.859265 24.415298
16.659950 14.888617 24.414738
16.659966 14.917968 24.414175
16.659981 14.947318 24.413614
16.659986 14.976630 24.413933
16.660000 15.005980 24.413374
16.660004 15.035294 24.413700
16.660019 15.064643 24.413139
16.660023 15.093956 24.413458
16.660017 15.123232 24.414665
16.660007 15.152507 24.415861
16.659979 15.181710 24.418797
16.659948 15.210911 24.421772
16.659918 15.240109 24.424738
16.659832 15.269121 24.432131
16.659733 15.298097 24.440401
16.659634 15.327068 24.448681
16.659536 15.356044 24.456942
16.659439 15.385018 24.465212
16.659340 15.413992 24.473482
16.659252 15.443004 24.480864
16.659166 15.472014 24.488245
16.659147 15.501252 24.490341
16.659128 15.530491 24.492428
16.659111 15.559727 24.494514
16.659079 15.588930 24.497480
16.659071 15.618205 24.498688
16.659065 15.647479 24.499895
16.659058 15.676757 24.501053
16.659061 15.706070 24.501379
16.659065 15.735382 24.501699
16.659092 15.764771 24.500257
16.659107 15.794120 24.499697
16.659180 15.823658 24.494730
16.659252 15.853197 24.489754
16.659334 15.882772 24.483898
16.659407 15.912312 24.478922
16.659479 15.941851 24.473946
16.659550 15.971390 24.468967
16.659611 16.000891 24.464872
16.659670 16.030394 24.460775
16.659687 16.059742 24.460215
16.659691 16.089056 24.460531
16.659695 16.118368 24.460850
16.659698 16.147680 24.461178
16.659679 16.176920 24.463226
16.659660 16.206158 24.465311
16.659632 16.235357 24.468287
16.659613 16.264595 24.470373
16.659594 16.293833 24.472460
16.659597 16.323145 24.472778
16.659590 16.352421 24.473986
16.659639 16.381886 24.470768
16.659678 16.411312 24.468439
16.686958 13.420328 24.460884
16.686962 13.449641 24.461203
16.686977 13.478992 24.460651
16.686995 13.508342 24.460091
16.686996 13.537655 24.460419
16.687000 13.566968 24.460747
16.687016 13.596317 24.460186
16.687019 13.625630 24.460505
16.687025 13.654943 24.460833
16.687038 13.684295 24.460232
16.687031 13.713571 24.461439
16.687025 13.742846 24.462646
16.687017 13.772121 24.463854
16.686998 13.801358 24.465940
16.686979 13.830596 24.468016
16.686972 13.859872 24.469223
16.686953 13.889110 24.471312
16.686947 13.918385 24.472519
16.686939 13.947660 24.473717
16.686987 13.977125 24.470476
16.687014 14.006513 24.469036
16.687040 14.035900 24.467607
16.687124 14.065476 24.461761
16.687208 14.095052 24.455906
16.687302 14.124665 24.449181
16.687386 14.154242 24.443325
16.687593 14.184234 24.427719
16.687735 14.213997 24.417448
16.687874 14.243761 24.407177
16.687979 14.273412 24.399553
16.688086 14.303065 24.391918
16.688169 14.332642 24.386053
16.688253 14.362218 24.380188
16.688292 14.391644 24.377857
16.688328 14.421069 24.375528
16.688286 14.450232 24.379385
16.688234 14.479356 24.384129
16.688181 14.508481 24.388872
16.688118 14.537568 24.394485
16.688063 14.566692 24.399229
16.688000 14.595779 24.404860
16.687958 14.624942 24.408716
16.687906 14.654066 24.413450
16.687910 14.683380 24.413729
16.687912 14.712694 24.414057
16.687906 14.741970 24.415253
16.687910 14.771282 24.415581
16.687914 14.800594 24.415899
16.687918 14.829907 24.416227
16.687922 14.859221 24.416548
16.687937 14.888571 24.415987
16.687941 14.917885 24.416304
16.687956 14.947235 24.415743
16.687962 14.976547 24.416059
16.687975 15.005898 24.415501
16.687979 15.035211 24.415829
16.687983 15.064523 24.416147
16.687977 15.093798 24.417355
16.687969 15.123075 24.418550
16.687948 15.152310 24.420639
16.687920 15.181513 24.423574
16.687889 15.210715 24.426550
16.687860 15.239913 24.429525
16.687773 15.268926 24.436905
16.687674 15.297900 24.445187
16.687586 15.326911 24.452568
16.687489 15.355886 24.460838
16.687403 15.384898 24.468229
16.687304 15.413871 24.476490
16.687204 15.442845 24.484758
16.687107 15.471819 24.493019
16.687088 15.501058 24.495106
16.687071 15.530295 24.497194
16.687052 15.559532 24.499279
16.687031 15.588772 24.501368
16.687025 15.618048 24.502575
16.687006 15.647284 24.504660
16.686998 15.676561 24.505827
16.687027 15.705950 24.504375
16.687052 15.735337 24.502937
16.687136 15.764913 24.497091
16.687206 15.794451 24.492113
16.687290 15.824027 24.486259
16.687363 15.853566 24.481281
16.687456 15.883179 24.474537
16.687540 15.912756 24.468681
16.687601 15.942257 24.464584
16.687662 15.971759 24.460487
16.687689 16.001148 24.459047
16.687702 16.030499 24.458487
16.687719 16.059849 24.457916
16.687723 16.089161 24.458244
16.687727 16.118473 24.458561
16.687719 16.147749 24.459768
16.687689 16.176950 24.462694
16.687670 16.206188 24.464781
16.687653 16.235426 24.466867
16.687645 16.264702 24.468075
16.687626 16.293938 24.470171
16.687618 16.323214 24.471369
16.687611 16.352489 24.472576
16.687660 16.381952 24.469358
16.687710 16.411417 24.466148
16.714945 13.420282 24.462124
16.714937 13.449558 24.463331
16.714943 13.478870 24.463657
16.714947 13.508183 24.463976
16.714949 13.537498 24.464306
16.714941 13.566772 24.465513
16.714947 13.596085 24.465830
16.714951 13.625397 24.466160
16.714966 13.654748 24.465599
16.714991 13.684137 24.464117
16.714996 13.713450 24.464436
16.715012 13.742802 24.463884
16.715015 13.772114 24.464214
16.715019 13.801426 24.464531
16.715021 13.830738 24.464861
16.715015 13.860014 24.466068
16.715008 13.889289 24.467266
16.715000 13.918565 24.468472
16.714983 13.947803 24.470558
16.714962 13.977042 24.472605
16.715000 14.006468 24.470274
16.715038 14.035892 24.467966
16.715111 14.065431 24.462999
16.715172 14.094932 24.458912
16.715242 14.124470 24.453945
16.715315 14.154008 24.448969
16.715546 14.184075 24.431604
16.715641 14.213689 24.424870
16.715725 14.243264 24.419016
16.715841 14.272953 24.410513
16.715958 14.302644 24.401999
16.716076 14.332333 24.393476
16.716194 14.362022 24.384962
16.716267 14.391562 24.379986
16.716337 14.421100 24.375000
16.716330 14.450375 24.376207
16.716312 14.479611 24.378294
16.716202 14.508550 24.387451
16.716082 14.537448 24.397501
16.715971 14.566383 24.406662
16.715860 14.595321 24.415819
16.715752 14.624257 24.424969
16.715631 14.653155 24.435009
16.715569 14.682243 24.440580
16.715605 14.711671 24.438261
16.715643 14.741096 24.435932
16.715693 14.770559 24.432724
16.715742 14.800022 24.429506
16.715815 14.829561 24.424540
16.715874 14.859062 24.420443
16.715935 14.888562 24.416346
16.715984 14.918028 24.413126
16.716011 14.947416 24.411676
16.716026 14.976766 24.411127
16.716042 15.006116 24.410555
16.716057 15.035467 24.409994
16.716049 15.064741 24.411201
16.716030 15.093979 24.413288
16.716013 15.123217 24.415384
16.715981 15.152416 24.418348
16.715929 15.181542 24.423054
16.715876 15.210670 24.427797
16.715824 15.239793 24.432531
16.715736 15.268805 24.439924
16.715649 15.297817 24.447304
16.715551 15.326791 24.455574
16.715441 15.355727 24.464733
16.715343 15.384703 24.472994
16.715246 15.413675 24.481264
16.715168 15.442725 24.487766
16.715094 15.471774 24.494259
16.715063 15.500975 24.497234
16.715023 15.530137 24.501080
16.715004 15.559374 24.503166
16.714983 15.588614 24.505262
16.714977 15.617889 24.506458
16.714958 15.647126 24.508547
16.714941 15.676366 24.510592
16.714968 15.705754 24.509153
16.714981 15.735104 24.508591
16.715065 15.764680 24.502745
16.715137 15.794217 24.497768
16.715221 15.823793 24.491913
16.715305 15.853371 24.486059
16.715397 15.882983 24.479313
16.715481 15.912560 24.473457
16.715542 15.942061 24.469360
16.715603 15.971561 24.465263
16.715618 16.000914 24.464703
16.715633 16.030266 24.464140
16.715649 16.059614 24.463579
16.715664 16.088966 24.463018
16.715668 16.118277 24.463337
16.715662 16.147552 24.464544
16.715641 16.176792 24.466591
16.715633 16.206066 24.467798
16.715616 16.235304 24.469885
16.715609 16.264580 24.471092
16.715590 16.293818 24.473179
16.715582 16.323092 24.474386
16.715563 16.352331 24.476473
16.715578 16.381681 24.475910
16.715593 16.411034 24.475349
16.742954 13.420313 24.461603
16.742958 13.449626 24.461922
16.742964 13.478938 24.462248
16.742968 13.508250 24.462578
16.742970 13.537565 24.462896
16.742962 13.566840 24.464104
16.742966 13.596152 24.464432
16.742971 13.625464 24.464750
16.742987 13.654816 24.464190
16.743000 13.684167 24.463598
16.742994 13.713443 24.464796
16.742998 13.742756 24.465122
16.742990 13.772031 24.466330
16.742994 13.801343 24.466660
16.742987 13.830619 24.467857
16.742979 13.859894 24.469065
16.742971 13.889169 24.470272
16.742964 13.918445 24.471479
16.742958 13.947720 24.472677
16.742949 13.976997 24.473845
16.742954 14.006310 24.474161
16.742947 14.035584 24.475368
16.742985 14.065010 24.473051
16.743023 14.094436 24.470732
16.743093 14.123974 24.465765
16.743166 14.153512 24.460798
16.743408 14.183616 24.442564
16.743549 14.213380 24.432293
16.743677 14.243106 24.422911
16.743782 14.272757 24.415287
16.743877 14.302372 24.408543
16.743996 14.332062 24.400028
16.744101 14.361713 24.392395
16.744173 14.391253 24.387419
16.744232 14.420753 24.383310
16.744282 14.450216 24.380104
16.744333 14.479679 24.376884
16.744371 14.509107 24.374556
16.744410 14.538532 24.372227
16.744400 14.567807 24.373434
16.744392 14.597083 24.374632
16.744398 14.626395 24.374960
16.744390 14.655670 24.376156
16.744394 14.684985 24.376434
16.744387 14.714261 24.377642
16.744368 14.743498 24.379740
16.744371 14.772811 24.380056
16.744366 14.802086 24.381264
16.744358 14.831362 24.382471
16.744349 14.860637 24.383669
16.744297 14.889761 24.388412
16.744244 14.918886 24.393156
16.744179 14.947972 24.398788
16.744116 14.977059 24.404413
16.744049 15.006145 24.410034
16.743975 15.035195 24.416548
16.743900 15.064243 24.423050
16.743824 15.093294 24.429552
16.743761 15.122381 24.435184
16.743683 15.151429 24.441687
16.743563 15.180330 24.451675
16.743511 15.209457 24.456421
16.743446 15.238544 24.462032
16.743395 15.267669 24.466776
16.743328 15.296757 24.472389
16.743299 15.325955 24.475355
16.743258 15.355118 24.479210
16.743240 15.384356 24.481295
16.743210 15.413555 24.484270
16.743189 15.442793 24.486359
16.743160 15.471992 24.489325
16.743130 15.501192 24.492300
16.743099 15.530393 24.495264
16.743082 15.559629 24.497351
16.743061 15.588869 24.499447
16.743053 15.618145 24.500645
16.743036 15.647382 24.502731
16.743040 15.676697 24.503019
16.743067 15.706085 24.501570
16.743082 15.735435 24.501009
16.743143 15.764935 24.496922
16.743193 15.794397 24.493713
16.743252 15.823899 24.489626
16.743313 15.853400 24.485537
16.743383 15.882937 24.480562
16.743456 15.912477 24.475586
16.743528 15.942016 24.470608
16.743589 15.971516 24.466511
16.743616 16.000906 24.465061
16.743643 16.030294 24.463621
16.743670 16.059683 24.462172
16.743696 16.089071 24.460732
16.743700 16.118382 24.461050
16.743692 16.147657 24.462255
16.743685 16.176935 24.463413
16.743677 16.206209 24.464621
16.743660 16.235447 24.466707
16.743652 16.264723 24.467915
16.743633 16.293961 24.470001
16.743670 16.323385 24.467672
16.743696 16.352776 24.466232
16.743736 16.382202 24.463892
16.743774 16.411629 24.461563
16.770973 13.420381 24.460194
16.770977 13.449694 24.460522
16.770969 13.478969 24.461729
16.770964 13.508243 24.462936
16.770966 13.537558 24.463257
16.770958 13.566833 24.464464
16.770952 13.596107 24.465672
16.770945 13.625381 24.466879
16.770948 13.654696 24.467196
16.770973 13.684085 24.465717
16.770979 13.713397 24.466043
16.770994 13.742748 24.465483
16.770998 13.772061 24.465811
16.771002 13.801373 24.466129
16.771004 13.830686 24.466457
16.770998 13.859962 24.467665
16.770979 13.889198 24.469753
16.770960 13.918437 24.471838
16.770943 13.947674 24.473925
16.770910 13.976876 24.476851
16.770905 14.006152 24.478048
16.770897 14.035426 24.479256
16.770901 14.064739 24.479584
16.770906 14.094052 24.479900
16.770964 14.123553 24.475824
16.771013 14.153016 24.472626
16.771177 14.182858 24.460556
16.771296 14.212545 24.452063
16.771412 14.242233 24.443560
16.771540 14.271959 24.434177
16.771669 14.301686 24.424795
16.771753 14.331264 24.418940
16.771837 14.360840 24.413073
16.771908 14.390379 24.408098
16.771978 14.419917 24.403122
16.772039 14.449418 24.399025
16.772100 14.478918 24.394926
16.772150 14.508382 24.391720
16.772190 14.537809 24.389378
16.772249 14.567310 24.385281
16.772299 14.596774 24.382072
16.772348 14.626237 24.378857
16.772387 14.655663 24.376514
16.772413 14.685053 24.375027
16.772429 14.714404 24.374466
16.772432 14.743717 24.374783
16.772425 14.772992 24.375990
16.772417 14.802267 24.377197
16.772411 14.831542 24.378405
16.772390 14.860780 24.380493
16.772383 14.890055 24.381699
16.772366 14.919293 24.383785
16.772278 14.948304 24.391188
16.772181 14.977278 24.399467
16.772057 15.006176 24.409506
16.771925 15.035037 24.420443
16.771805 15.063934 24.430483
16.771673 15.092796 24.441401
16.771542 15.121658 24.452318
16.771397 15.150481 24.464115
16.771288 15.179420 24.473225
16.771269 15.208660 24.475309
16.771238 15.237859 24.478275
16.771221 15.267097 24.480373
16.771189 15.296297 24.483337
16.771170 15.325534 24.485426
16.771152 15.354772 24.487511
16.771133 15.384010 24.489599
16.771114 15.413246 24.491684
16.771107 15.442522 24.492891
16.771088 15.471759 24.494978
16.771080 15.501035 24.496183
16.771074 15.530310 24.497391
16.771078 15.559622 24.497711
16.771069 15.588898 24.498919
16.771072 15.618213 24.499247
16.771078 15.647524 24.499565
16.771105 15.676914 24.498085
16.771154 15.706378 24.494875
16.771202 15.735840 24.491669
16.771263 15.765342 24.487579
16.771313 15.794804 24.484364
16.771362 15.824267 24.481153
16.771412 15.853731 24.477945
16.771471 15.883231 24.473858
16.771521 15.912695 24.470640
16.771536 15.942046 24.470079
16.771551 15.971395 24.469519
16.771568 16.000748 24.468958
16.771570 16.030062 24.469275
16.771585 16.059410 24.468725
16.771601 16.088762 24.468153
16.771606 16.118074 24.468472
16.771610 16.147387 24.468800
16.771624 16.176741 24.468189
16.771627 16.206051 24.468517
16.771622 16.235327 24.469725
16.771671 16.264791 24.466505
16.771709 16.294216 24.464176
16.771757 16.323681 24.460958
16.771795 16.353106 24.458630
