7.703740 15.581470 20.653086
7.703756 15.610936 20.663748
7.703774 15.640417 20.675331
7.703784 15.669811 20.681355
7.703794 15.699205 20.687357
7.703802 15.728587 20.692440
7.703812 15.757981 20.698454
7.703820 15.787362 20.703548
7.703827 15.816743 20.708632
7.703830 15.846068 20.709995
7.703833 15.875392 20.711369
7.703834 15.904702 20.711802
7.703835 15.934012 20.712248
7.703829 15.963251 20.708042
7.703824 15.992505 20.704775
7.703817 16.021744 20.700571
7.703813 16.050999 20.697294
7.703803 16.080194 20.690310
7.703792 16.109392 20.683315
7.703783 16.138603 20.677250
7.703775 16.167814 20.671196
7.703770 16.197067 20.667919
7.703765 16.226320 20.664644
7.703756 16.255533 20.658539
7.703756 16.284828 20.658052
7.703757 16.314138 20.658497
7.703756 16.343433 20.658010
7.703756 16.372730 20.657524
7.703756 16.402025 20.657038
7.703756 16.431335 20.657484
7.703756 16.460632 20.656988
7.703756 16.489927 20.656502
7.703760 16.519266 20.658806
7.703765 16.548620 20.662039
7.703770 16.577971 20.665262
7.703775 16.607325 20.668495
7.703781 16.636679 20.671730
7.703786 16.666029 20.674953
7.731780 13.706662 20.693056
7.731779 13.735958 20.692560
7.731778 13.765254 20.692062
7.731778 13.794549 20.691568
7.731778 13.823846 20.691082
7.731777 13.853142 20.690586
7.731778 13.882452 20.691019
7.731778 13.911747 20.690525
7.731779 13.941056 20.690908
7.731780 13.970366 20.691343
7.731779 13.999662 20.690857
7.731779 14.028959 20.690361
7.731771 14.058184 20.685226
7.731764 14.087409 20.680080
7.731757 14.116633 20.674946
7.731749 14.145860 20.669811
7.731739 14.175056 20.662815
7.731730 14.204267 20.656750
7.731695 14.233224 20.633965
7.731660 14.262180 20.611174
7.731630 14.291180 20.591158
7.731602 14.320191 20.572077
7.731590 14.349376 20.564142
7.731578 14.378557 20.556215
7.731531 14.407387 20.525032
7.731485 14.436229 20.494780
7.731484 14.465526 20.494286
7.731199 14.491988 20.307640
7.731055 14.637049 20.211952
7.731055 14.666346 20.211468
7.731054 14.695641 20.210962
7.731054 14.724936 20.210464
7.731053 14.754232 20.209978
7.731053 14.783528 20.209484
7.731052 14.812824 20.208979
7.731052 14.842119 20.208492
7.731052 14.871417 20.207996
7.731051 14.900712 20.207500
7.731051 14.930008 20.207005
7.731050 14.959303 20.206509
7.731050 14.988599 20.206013
7.731050 15.017896 20.205517
7.731050 15.047191 20.205032
7.731472 15.315104 20.479906
7.731505 15.344727 20.500807
7.731538 15.374362 20.522650
7.731572 15.403998 20.544472
7.731606 15.433634 20.566301
7.731635 15.463226 20.585333
7.731665 15.492819 20.604326
7.731664 15.522115 20.603830
7.731692 15.551694 20.621931
7.731720 15.581272 20.640034
7.731742 15.610794 20.654406
7.731766 15.640331 20.669720
7.731780 15.669768 20.678520
7.731795 15.699220 20.688244
7.731802 15.728587 20.692398
7.731810 15.757967 20.697493
7.731818 15.787348 20.702576
7.731827 15.816743 20.708588
7.731830 15.846067 20.709953
7.731834 15.875405 20.712246
7.731835 15.904715 20.712690
7.731837 15.934041 20.714064
7.731833 15.963293 20.710789
7.731829 15.992561 20.708443
7.731819 16.021757 20.701458
7.731808 16.050955 20.694462
7.731797 16.080137 20.686548
7.731787 16.109335 20.679552
7.731776 16.138533 20.672567
7.731766 16.167728 20.665573
7.731759 16.196955 20.660437
7.731752 16.226192 20.656242
7.731751 16.255489 20.655716
7.731753 16.284800 20.656149
7.731754 16.314108 20.656593
7.731758 16.343447 20.658897
7.731763 16.372801 20.662121
7.731768 16.402153 20.665354
7.731773 16.431505 20.668579
7.731777 16.460844 20.670883
7.731783 16.490196 20.674118
7.731788 16.519548 20.677351
7.731794 16.548916 20.681505
7.731796 16.578224 20.681948
7.731797 16.607534 20.682392
7.731798 16.636847 20.682825
7.731799 16.666157 20.683279
7.759783 13.706690 20.694872
7.759781 13.735972 20.693447
7.759780 13.765267 20.692951
7.759778 13.794549 20.691525
7.759778 13.823845 20.691038
7.759778 13.853142 20.690544
7.759778 13.882451 20.690977
7.759778 13.911747 20.690481
7.759779 13.941056 20.690865
7.759780 13.970366 20.691301
7.759772 13.999591 20.686165
7.759767 14.028831 20.681959
7.759759 14.058057 20.676825
7.759751 14.087281 20.671690
7.759744 14.116507 20.666544
7.759737 14.145732 20.661409
7.759719 14.174858 20.649765
7.759703 14.203998 20.639057
7.759671 14.232984 20.618126
7.759640 14.261968 20.597181
7.759636 14.291235 20.594837
7.759635 14.320517 20.593410
7.759596 14.349431 20.567818
7.759557 14.378345 20.542225
7.759556 14.407640 20.541729
7.759201 14.433396 20.308590
7.759146 14.462153 20.272709
7.759093 14.490925 20.237736
7.759093 14.520221 20.237240
7.759092 14.549517 20.236746
7.759073 14.578629 20.224140
7.759056 14.607754 20.212467
7.759040 14.636892 20.201662
7.759031 14.666103 20.195576
7.759023 14.695329 20.190422
7.759015 14.724539 20.184336
7.759007 14.753764 20.179180
7.758998 14.782975 20.173084
7.758990 14.812200 20.167931
7.758990 14.841496 20.167433
7.758989 14.870791 20.166937
7.758989 14.900087 20.166443
7.758990 14.929397 20.166876
7.758997 14.958764 20.171051
7.759005 14.988145 20.176144
7.759037 15.017768 20.197086
7.759070 15.047389 20.218027
7.759095 15.076941 20.234310
7.759120 15.106492 20.250582
7.759155 15.136142 20.273382
7.759191 15.165792 20.296175
7.759225 15.195443 20.318975
7.759261 15.225093 20.341757
7.759296 15.254743 20.364548
7.759331 15.284393 20.387329
7.759330 15.313688 20.386793
7.759401 15.343692 20.432844
7.759472 15.373696 20.478882
7.759507 15.403346 20.501642
7.759542 15.432997 20.524414
7.759586 15.462730 20.552755
7.759673 15.492903 20.609852
7.759717 15.522638 20.638182
7.759717 15.551934 20.637695
7.759716 15.581229 20.637201
7.759734 15.610708 20.648794
7.759752 15.640189 20.660387
7.759769 15.669655 20.671040
7.759786 15.699121 20.681704
7.759792 15.728487 20.685856
7.759800 15.757868 20.690941
7.759807 15.787234 20.695105
7.759815 15.816615 20.700188
7.759821 15.845983 20.704342
7.759830 15.875362 20.709423
7.759830 15.904658 20.708939
7.759830 15.933969 20.709383
7.759829 15.963251 20.707956
7.759827 15.992532 20.706539
7.759818 16.021744 20.700485
7.759809 16.050955 20.694420
7.759799 16.080153 20.687435
7.759790 16.109364 20.681370
7.759779 16.138559 20.674385
7.759771 16.167772 20.668320
7.759763 16.196997 20.663185
7.759756 16.226221 20.658058
7.759753 16.255503 20.656591
7.759752 16.284784 20.655178
7.759751 16.314081 20.654692
7.759751 16.343376 20.654205
7.759751 16.372671 20.653721
7.759752 16.401983 20.654165
7.759752 16.431293 20.654608
7.759753 16.460604 20.655043
7.759755 16.489912 20.655485
7.759760 16.519266 20.658720
7.759767 16.548634 20.662884
7.759772 16.577984 20.666107
7.759778 16.607351 20.670271
7.759784 16.636703 20.673504
7.759790 16.666071 20.677658
7.787780 13.706661 20.692970
7.787779 13.735958 20.692474
7.787778 13.765253 20.691978
7.787778 13.794549 20.691483
7.787778 13.823845 20.690996
7.787777 13.853141 20.690500
7.787778 13.882451 20.690933
7.787778 13.911746 20.690439
7.787779 13.941056 20.690823
7.787778 13.970351 20.690327
7.787771 13.999578 20.685192
7.787764 14.028803 20.680056
7.787756 14.058028 20.674921
7.787748 14.087253 20.669785
7.787740 14.116463 20.663721
7.787731 14.145676 20.657654
7.787696 14.174631 20.634863
7.787662 14.203588 20.612070
7.787632 14.232586 20.592054
7.787602 14.261600 20.572973
7.787586 14.290740 20.562256
7.787572 14.319895 20.552471
7.787529 14.348766 20.524080
7.787486 14.377637 20.495687
7.787485 14.406933 20.495192
7.787201 14.433395 20.308548
7.787153 14.462225 20.277315
7.787106 14.491052 20.246082
7.787079 14.520079 20.227890
7.787051 14.549106 20.209686
7.787050 14.578402 20.209188
7.787050 14.607697 20.208693
7.787017 14.636664 20.186710
7.787006 14.665862 20.179695
7.786997 14.695072 20.173599
7.786987 14.724269 20.166574
7.786977 14.753466 20.159561
7.786976 14.782763 20.159065
7.786976 14.812057 20.158567
7.786976 14.841353 20.158072
7.786975 14.870649 20.157578
7.786976 14.899959 20.158010
7.786977 14.929269 20.158445
7.786995 14.958749 20.170067
7.787013 14.988231 20.181700
7.787013 15.017526 20.181194
7.787013 15.046822 20.180698
7.787056 15.076557 20.209099
7.787101 15.106308 20.238430
7.787134 15.135929 20.259361
7.787168 15.165565 20.281233
7.787167 15.194861 20.280737
7.787167 15.224156 20.280241
7.787209 15.253878 20.307692
7.787251 15.283599 20.335144
7.787273 15.313122 20.349504
7.787337 15.343055 20.390915
7.787402 15.373002 20.433243
7.787437 15.402653 20.456015
7.787472 15.432302 20.478786
7.787518 15.462051 20.508066
7.787628 15.492450 20.580063
7.787693 15.522398 20.622343
7.787724 15.552004 20.642294
7.787756 15.581625 20.663176
7.787755 15.610921 20.662689
7.787755 15.640218 20.662193
7.787775 15.669711 20.674717
7.787795 15.699219 20.688158
7.787805 15.728615 20.694172
7.787815 15.758009 20.700186
7.787821 15.787375 20.704340
7.787829 15.816755 20.709423
7.787831 15.846081 20.710796
7.787834 15.875404 20.712160
7.787835 15.904715 20.712605
7.787836 15.934026 20.713049
7.787834 15.963306 20.711634
7.787834 15.992603 20.711147
7.787823 16.021799 20.704151
7.787814 16.051012 20.698097
7.787804 16.080208 20.691113
7.787795 16.109419 20.685045
7.787785 16.138615 20.678051
7.787775 16.167814 20.671068
7.787765 16.197010 20.664070
7.787754 16.226206 20.657087
7.787752 16.255489 20.655630
7.787752 16.284784 20.655134
7.787751 16.314081 20.654650
7.787751 16.343376 20.654163
7.787752 16.372686 20.654608
7.787753 16.401997 20.655050
7.787754 16.431307 20.655495
7.787759 16.460659 20.658718
7.787765 16.490011 20.661951
7.787770 16.519363 20.665174
7.787775 16.548717 20.668409
7.787780 16.578070 20.671644
7.787787 16.607435 20.675797
7.787791 16.636774 20.678102
7.787796 16.666128 20.681335
7.815780 13.706661 20.692928
7.815779 13.735957 20.692432
7.815778 13.765253 20.691935
7.815778 13.794548 20.691439
7.815778 13.823845 20.690954
7.815777 13.853141 20.690458
7.815777 13.882437 20.689962
7.815777 13.911732 20.689466
7.815774 13.941013 20.688002
7.815774 13.970309 20.687506
7.815766 13.999534 20.682369
7.815761 14.028774 20.678164
7.815753 14.057999 20.673018
7.815747 14.087238 20.668814
7.815730 14.116364 20.657169
7.815712 14.145492 20.645535
7.815675 14.174419 20.620880
7.815637 14.203346 20.596228
7.815634 14.232615 20.593874
7.815632 14.261896 20.592457
7.815596 14.290839 20.568724
7.815562 14.319795 20.545919
7.815495 14.348427 20.501720
7.815429 14.377070 20.458429
7.815315 14.405233 20.383492
7.815201 14.433395 20.308506
7.815162 14.462309 20.282862
7.815123 14.491222 20.257219
7.815067 14.519964 20.220388
7.815011 14.548708 20.183546
7.815011 14.578003 20.183048
7.814983 14.607029 20.164797
7.814956 14.636055 20.146591
7.814941 14.665210 20.136768
7.814926 14.694364 20.126953
7.814913 14.723531 20.118057
7.814901 14.752713 20.110113
7.814897 14.781967 20.106817
7.814893 14.811234 20.104452
7.814893 14.840529 20.103956
7.814894 14.869841 20.104389
7.814896 14.899164 20.105762
7.814900 14.928503 20.108068
7.814906 14.957855 20.111301
7.814912 14.987222 20.115465
7.814924 15.016646 20.123358
7.814939 15.046083 20.132191
7.814972 15.075721 20.154062
7.815007 15.105371 20.176874
7.815031 15.134908 20.192226
7.815056 15.164458 20.208508
7.815087 15.194067 20.228519
7.815118 15.223675 20.248522
7.815124 15.253026 20.251755
7.815130 15.282393 20.255919
7.815239 15.312780 20.327105
7.815285 15.342530 20.356424
7.815330 15.372279 20.385727
7.815363 15.401917 20.407579
7.815397 15.431551 20.429420
7.815468 15.461555 20.475458
7.815581 15.491982 20.549345
7.815623 15.521704 20.576744
7.815648 15.551254 20.592987
7.815675 15.580818 20.610159
7.815704 15.610412 20.629192
7.815733 15.640005 20.648212
7.815752 15.669485 20.659815
7.815771 15.698978 20.672329
7.815779 15.728360 20.677410
7.815787 15.757740 20.682495
7.815795 15.787120 20.687578
7.815804 15.816502 20.692661
7.815811 15.845882 20.697744
7.815820 15.875263 20.702839
7.815828 15.904643 20.707922
7.815836 15.934026 20.713007
7.815835 15.963321 20.712521
7.815835 15.992617 20.712034
7.815829 16.021856 20.707829
7.815824 16.051109 20.704554
7.815814 16.080307 20.697569
7.815804 16.109503 20.690573
7.815793 16.138700 20.683578
7.815783 16.167898 20.676594
7.815773 16.197096 20.669607
7.815763 16.226305 20.663542
7.815754 16.255518 20.657448
7.815754 16.284813 20.656952
7.815754 16.314108 20.656466
7.815753 16.343405 20.655979
7.815753 16.372700 20.655495
7.815753 16.401995 20.655008
7.815753 16.431307 20.655453
7.815753 16.460604 20.654957
7.815754 16.489912 20.655399
7.815760 16.519264 20.658634
7.815766 16.548632 20.662798
7.815770 16.577971 20.665091
7.815775 16.607323 20.668324
7.815782 16.636690 20.672487
7.815789 16.666056 20.676641
7.843779 13.706661 20.692884
7.843779 13.735957 20.692389
7.843778 13.765252 20.691893
7.843777 13.794548 20.691397
7.843777 13.823844 20.690910
7.843777 13.853141 20.690414
7.843776 13.882436 20.689920
7.843776 13.911732 20.689425
7.843774 13.941013 20.687958
7.843773 13.970309 20.687462
7.843767 13.999548 20.683256
7.843761 14.028788 20.679041
7.843752 14.057999 20.672976
7.843745 14.087223 20.667841
7.843704 14.116110 20.640408
7.843663 14.145010 20.613905
7.843633 14.174009 20.593893
7.843604 14.203021 20.574808
7.843590 14.232176 20.565014
7.843575 14.261331 20.555229
7.843530 14.290187 20.525917
7.843486 14.319045 20.496593
7.843416 14.347647 20.450514
7.843346 14.376249 20.404413
7.843273 14.404822 20.356453
7.843200 14.433395 20.308462
7.843153 14.462224 20.277229
7.843106 14.491066 20.246927
7.843044 14.519737 20.205437
7.842980 14.548409 20.163935
7.842947 14.577379 20.142000
7.842914 14.606347 20.120008
7.842914 14.635643 20.119501
7.842895 14.664755 20.106897
7.842875 14.693867 20.094273
7.842864 14.723048 20.086319
7.842852 14.752231 20.078365
7.842844 14.781456 20.073208
7.842838 14.810695 20.068983
7.842844 14.840047 20.072218
7.842849 14.869400 20.075441
7.842854 14.898753 20.078674
7.842860 14.928105 20.081919
7.842868 14.957486 20.087011
7.842877 14.986881 20.093044
7.842894 15.016348 20.103737
7.842911 15.045814 20.114431
7.842923 15.075237 20.122322
7.842935 15.104661 20.130226
7.842974 15.134339 20.154898
7.843013 15.164033 20.180498
7.843032 15.193527 20.193062
7.843053 15.223036 20.206543
7.843079 15.252586 20.222826
7.843104 15.282138 20.239109
7.843132 15.311717 20.257200
7.843197 15.341664 20.299568
7.843264 15.371627 20.342850
7.843320 15.401490 20.379608
7.843376 15.431353 20.416349
7.843423 15.461116 20.446568
7.843537 15.491558 20.521404
7.843606 15.521547 20.566473
7.843660 15.551381 20.601313
7.843714 15.581214 20.636143
7.843713 15.610510 20.635658
7.843713 15.639807 20.635162
7.843734 15.669314 20.648613
7.843755 15.698823 20.662067
7.843769 15.728260 20.670868
7.843784 15.757711 20.680592
7.843791 15.787078 20.684755
7.843799 15.816459 20.689840
7.843805 15.845826 20.693993
7.843813 15.875206 20.699078
7.843822 15.904587 20.704161
7.843830 15.933968 20.709255
7.843831 15.963279 20.709688
7.843833 15.992602 20.711061
7.843822 16.021799 20.704067
7.843813 16.051010 20.698011
7.843803 16.080208 20.691027
7.843793 16.109404 20.684031
7.843782 16.138601 20.677036
7.843773 16.167799 20.670052
7.843761 16.196981 20.662125
7.843750 16.226179 20.655140
7.843750 16.255474 20.654613
7.843750 16.284771 20.654119
7.843750 16.314079 20.654564
7.843750 16.343376 20.654078
7.843751 16.372686 20.654522
7.843751 16.401981 20.654036
7.843751 16.431292 20.654480
7.843751 16.460588 20.653994
7.843752 16.489897 20.654428
7.843752 16.519194 20.653952
7.843753 16.548504 20.654385
7.843753 16.577801 20.653900
7.843754 16.607111 20.654345
7.843757 16.636450 20.656649
7.843762 16.665800 20.659882
7.871779 13.706660 20.692842
7.871779 13.735957 20.692347
7.871778 13.765252 20.691849
7.871779 13.794562 20.692284
7.871780 13.823873 20.692719
7.871781 13.853182 20.693153
7.871782 13.882492 20.693586
7.871783 13.911801 20.694031
7.871783 13.941098 20.693483
7.871782 13.970393 20.692989
7.871773 13.999604 20.686922
7.871766 14.028830 20.681787
7.871754 14.058013 20.673864
7.871744 14.087210 20.666868
7.871701 14.116080 20.638506
7.871659 14.144967 20.611073
7.871653 14.174206 20.606859
7.871648 14.203460 20.603582
7.871610 14.232373 20.577990
7.871571 14.261288 20.552395
7.871488 14.289762 20.497967
7.871407 14.318252 20.444448
7.871341 14.346896 20.401146
7.871276 14.375554 20.358765
7.871199 14.404085 20.307985
7.871124 14.432629 20.258125
7.871080 14.461500 20.229683
7.871038 14.490384 20.202169
7.870990 14.519198 20.169977
7.870941 14.548012 20.137794
7.870941 14.577309 20.137299
7.870915 14.606361 20.120897
7.870891 14.635415 20.104551
7.870872 14.664528 20.091938
7.870855 14.693653 20.080254
7.870847 14.722878 20.075087
7.870840 14.752102 20.069933
7.870839 14.781399 20.069426
7.870839 14.810695 20.068939
7.870839 14.839991 20.068434
7.870838 14.869287 20.067940
7.870837 14.898582 20.067442
7.870837 14.927877 20.066946
7.870837 14.957173 20.066450
7.870836 14.986470 20.065956
7.870844 15.015850 20.071060
7.870854 15.045246 20.077091
7.870863 15.074641 20.083124
7.870874 15.104051 20.090088
7.870918 15.133786 20.118500
7.870964 15.163535 20.147840
7.870987 15.193073 20.163193
7.871011 15.222610 20.178545
7.871044 15.252233 20.199486
7.871077 15.281868 20.221357
7.871149 15.311888 20.268337
7.871166 15.341352 20.279028
7.871184 15.370833 20.290642
7.871222 15.400512 20.315302
7.871260 15.430190 20.339954
7.871328 15.460167 20.384165
7.871462 15.490807 20.472046
7.871530 15.520783 20.516216
7.871614 15.550914 20.570595
7.871697 15.581044 20.624952
7.871732 15.610694 20.647694
7.871767 15.640345 20.670433
7.871767 15.669640 20.669939
7.871767 15.698935 20.669453
7.871778 15.728345 20.676397
7.871790 15.757768 20.684269
7.871798 15.787148 20.689352
7.871806 15.816528 20.694435
7.871815 15.845924 20.700449
7.871825 15.875319 20.706463
7.871828 15.904643 20.707836
7.871831 15.933982 20.710131
7.871834 15.963305 20.711504
7.871836 15.992630 20.712868
7.871833 16.021896 20.710533
7.871831 16.051180 20.709118
7.871825 16.080420 20.704912
7.871820 16.109673 20.701637
7.871814 16.138912 20.697430
7.871809 16.168152 20.693226
7.871798 16.197348 20.686241
7.871788 16.226545 20.679255
7.871776 16.255728 20.671291
7.871770 16.284967 20.667084
7.871765 16.314220 20.663820
7.871760 16.343475 20.660543
7.871758 16.372744 20.658199
7.871757 16.402037 20.657703
7.871756 16.431334 20.657227
7.871756 16.460630 20.656731
7.871756 16.489925 20.656246
7.871759 16.519264 20.658550
7.871765 16.548618 20.661783
7.871769 16.577953 20.664076
7.871774 16.607309 20.667311
7.871779 16.636662 20.670544
7.871786 16.666027 20.674698
7.899758 13.706448 20.678871
7.899763 13.735801 20.682083
7.899768 13.765153 20.685308
7.899772 13.794491 20.687601
7.899777 13.823844 20.690825
7.899777 13.853140 20.690331
7.899776 13.882436 20.689835
7.899775 13.911716 20.688408
7.899768 13.940955 20.684153
7.899762 13.970195 20.679947
7.899753 13.999406 20.673883
7.899746 14.028632 20.668747
7.899728 14.057757 20.657103
7.899713 14.086899 20.646399
7.899674 14.115811 20.620815
7.899636 14.144741 20.596163
7.899637 14.174050 20.596596
7.899638 14.203360 20.597031
7.899596 14.232231 20.568647
7.899554 14.261117 20.541195
7.899448 14.289366 20.471876
7.899344 14.317628 20.403460
7.899247 14.345962 20.339670
7.899151 14.374307 20.276772
7.899134 14.403433 20.265108
7.899117 14.432558 20.253424
7.899029 14.460989 20.196093
7.898942 14.489420 20.138744
7.898901 14.518318 20.112141
7.898861 14.547217 20.085539
7.898860 14.576512 20.085043
7.898841 14.605623 20.072369
7.898823 14.634734 20.059753
7.898807 14.663876 20.049000
7.898790 14.693014 20.038244
7.898789 14.722295 20.036808
7.898787 14.751577 20.035383
7.898787 14.780873 20.034887
7.898786 14.810169 20.034391
7.898786 14.839464 20.033895
7.898787 14.868775 20.034328
7.898787 14.898085 20.034765
7.898789 14.927395 20.035198
7.898794 14.956747 20.038431
7.898800 14.986115 20.042595
7.898807 15.015481 20.046770
7.898814 15.044847 20.050934
7.898846 15.074471 20.071896
7.898880 15.104107 20.093775
7.898880 15.133403 20.093281
7.898880 15.162698 20.092783
7.898923 15.192435 20.121193
7.898968 15.222184 20.150536
7.898996 15.251763 20.168688
7.899024 15.281343 20.186829
7.899039 15.310795 20.196543
7.899076 15.340460 20.220284
7.899113 15.370123 20.244015
7.899176 15.400059 20.285454
7.899241 15.430006 20.327812
7.899312 15.460011 20.373882
7.899426 15.490438 20.447807
7.899467 15.520160 20.475239
7.899551 15.550291 20.529636
7.899636 15.580436 20.584934
7.899690 15.610270 20.619774
7.899745 15.640117 20.655523
7.899744 15.669414 20.655037
7.899744 15.698709 20.654551
7.899767 15.728246 20.669855
7.899793 15.757795 20.686087
7.899802 15.787190 20.692101
7.899812 15.816586 20.698114
7.899819 15.845966 20.703196
7.899829 15.875361 20.709209
7.899830 15.904671 20.709654
7.899833 15.933996 20.711020
7.899833 15.963291 20.710533
7.899833 15.992601 20.710976
7.899830 16.021870 20.708630
7.899828 16.051151 20.707214
7.899818 16.080349 20.700230
7.899809 16.109558 20.694164
7.899798 16.138756 20.687170
7.899788 16.167953 20.680183
7.899778 16.197151 20.673199
7.899767 16.226347 20.666204
7.899751 16.255487 20.655458
7.899750 16.284769 20.654034
7.899749 16.314064 20.653559
7.899749 16.343359 20.653061
7.899750 16.372671 20.653505
7.899751 16.401981 20.653952
7.899752 16.431292 20.654394
7.899751 16.460587 20.653908
7.899753 16.489897 20.654343
7.899754 16.519207 20.654785
7.899755 16.548519 20.655231
7.899759 16.577856 20.657536
7.899762 16.607193 20.659838
7.899767 16.636549 20.663063
7.899773 16.665899 20.666296
7.927758 13.706448 20.678829
7.927763 13.735801 20.682041
7.927768 13.765152 20.685266
7.927772 13.794491 20.687559
7.927777 13.823843 20.690783
7.927777 13.853140 20.690287
7.927776 13.882435 20.689791
7.927775 13.911716 20.688366
7.927765 13.940928 20.682261
7.927758 13.970153 20.677114
7.927749 13.999363 20.671049
7.927740 14.028575 20.664984
7.927727 14.057743 20.656130
7.927715 14.086926 20.648203
7.927695 14.116024 20.634710
7.927676 14.145136 20.622135
7.927657 14.174249 20.609560
7.927638 14.203360 20.596987
7.927563 14.231906 20.547228
7.927487 14.260452 20.497446
7.927385 14.288742 20.430899
7.927286 14.317047 20.365261
7.927213 14.345620 20.317280
7.927141 14.374207 20.270210
7.927065 14.402751 20.220339
7.926991 14.431310 20.171379
7.926958 14.460280 20.149456
7.926926 14.489264 20.128443
7.926886 14.518162 20.101849
7.926847 14.547074 20.076166
7.926846 14.576371 20.075680
7.926826 14.605467 20.062077
7.926807 14.634578 20.049452
7.926791 14.663718 20.038698
7.926775 14.692858 20.027933
7.926773 14.722139 20.026506
7.926771 14.751421 20.025082
7.926772 14.780731 20.025517
7.926773 14.810040 20.025949
7.926774 14.839351 20.026382
7.926775 14.868661 20.026817
7.926776 14.897971 20.027262
7.926779 14.927295 20.028625
7.926787 14.956676 20.033730
7.926795 14.986057 20.038824
7.926801 15.015425 20.042995
7.926808 15.044790 20.047159
7.926821 15.074215 20.055063
7.926833 15.103639 20.062956
7.926847 15.133076 20.071791
7.926861 15.162514 20.080612
7.926877 15.191979 20.091305
7.926894 15.221446 20.102007
7.926939 15.251196 20.131350
7.926986 15.280960 20.161619
7.927045 15.310851 20.200230
7.927073 15.340430 20.218370
7.927103 15.370024 20.237452
7.927118 15.399476 20.247206
7.927133 15.428928 20.256968
7.927198 15.458876 20.299328
7.927330 15.489490 20.385403
7.927396 15.519451 20.428669
7.927500 15.549781 20.496107
7.927603 15.580110 20.563515
7.927677 15.610141 20.611362
7.927751 15.640187 20.660130
7.927751 15.669483 20.659643
7.927751 15.698779 20.659149
7.927779 15.728358 20.677240
7.927807 15.757937 20.695333
7.927815 15.787317 20.700417
7.927824 15.816711 20.706430
7.927828 15.846051 20.708723
7.927834 15.875402 20.711946
7.927836 15.904727 20.713322
7.927838 15.934052 20.714695
7.927839 15.963363 20.715137
7.927842 15.992685 20.716501
7.927838 16.021954 20.714157
7.927836 16.051235 20.712742
7.927825 16.080418 20.704826
7.927814 16.109615 20.697840
7.927803 16.138798 20.689917
7.927793 16.167995 20.682922
7.927781 16.197178 20.675005
7.927769 16.226360 20.667082
7.927750 16.255472 20.654486
7.927750 16.284769 20.653990
7.927749 16.314064 20.653517
7.927749 16.343359 20.653019
7.927749 16.372656 20.652533
7.927750 16.401966 20.652977
7.927751 16.431276 20.653421
7.927750 16.460573 20.652937
7.927751 16.489882 20.653379
7.927752 16.519194 20.653824
7.927753 16.548504 20.654257
7.927754 16.577812 20.654701
7.927755 16.607122 20.655146
7.927760 16.636477 20.658381
7.927765 16.665829 20.661613
7.955759 13.706461 20.679714
7.955763 13.735801 20.681997
7.955768 13.765152 20.685223
7.955771 13.794491 20.687515
7.955777 13.823843 20.690739
7.955777 13.853139 20.690245
7.955776 13.882435 20.689749
7.955776 13.911730 20.689253
7.955768 13.940955 20.684067
7.955760 13.970181 20.678932
7.955751 13.999392 20.672867
7.955744 14.028617 20.667730
7.955727 14.057743 20.656086
7.955711 14.086884 20.645382
7.955675 14.115825 20.621660
7.955640 14.144783 20.598866
7.955634 14.174021 20.594650
7.955629 14.203275 20.591364
7.955522 14.231495 20.520218
7.955414 14.259730 20.449968
7.955341 14.288303 20.402010
7.955269 14.316876 20.354040
7.955198 14.345478 20.307919
7.955130 14.374093 20.262718
7.955034 14.402439 20.199799
7.954939 14.430799 20.137791
7.954904 14.459741 20.113989
7.954867 14.488681 20.090183
7.954867 14.517978 20.089680
7.954866 14.547274 20.089184
7.954844 14.576357 20.074699
7.954805 14.605268 20.048965
7.954788 14.634393 20.037281
7.954779 14.663605 20.031195
7.954770 14.692815 20.025101
7.954769 14.722096 20.023664
7.954768 14.751391 20.023169
7.954768 14.780688 20.022675
7.954767 14.809984 20.022179
7.954767 14.839280 20.021681
7.954766 14.868576 20.021185
7.954766 14.897871 20.020691
7.954766 14.927167 20.020184
7.954767 14.956476 20.020628
7.954768 14.985787 20.021061
7.954768 15.015097 20.021496
7.954771 15.044421 20.022869
7.954773 15.073746 20.024235
7.954777 15.103085 20.026539
7.954786 15.132465 20.031643
7.954795 15.161860 20.037674
7.954833 15.191540 20.062355
7.954871 15.221218 20.087048
7.954899 15.250798 20.105200
7.954929 15.280392 20.124281
7.954997 15.310369 20.168491
7.955008 15.339778 20.175453
7.955019 15.369186 20.182417
7.955062 15.398923 20.210817
7.955106 15.428658 20.239218
7.955175 15.458649 20.284386
7.955313 15.489319 20.374189
7.955382 15.519310 20.419319
7.955431 15.549087 20.450470
7.955478 15.578864 20.481619
7.955610 15.609476 20.567623
7.955741 15.640088 20.653578
7.955765 15.669624 20.668890
7.955790 15.699174 20.685114
7.955790 15.728471 20.684628
7.955790 15.757767 20.684141
7.955801 15.787176 20.691084
7.955813 15.816598 20.698957
7.955821 15.845981 20.704042
7.955831 15.875375 20.710054
7.955833 15.904698 20.711418
7.955837 15.934038 20.713722
7.955839 15.963362 20.715096
7.955842 15.992685 20.716459
7.955840 16.021967 20.715044
7.955838 16.051250 20.713627
7.955831 16.080475 20.708492
7.955824 16.109715 20.704296
7.955812 16.138897 20.696373
7.955802 16.168095 20.689388
7.955791 16.197277 20.681473
7.955779 16.226460 20.673548
7.955762 16.255600 20.662804
7.955758 16.284853 20.659529
7.955753 16.314106 20.656252
7.955753 16.343403 20.655766
7.955753 16.372698 20.655279
7.955752 16.401995 20.654795
7.955753 16.431305 20.655239
7.955754 16.460615 20.655682
7.955755 16.489923 20.656116
7.955755 16.519220 20.655630
7.955754 16.548519 20.655146
7.955760 16.577869 20.658379
7.955765 16.607222 20.661613
7.955770 16.636576 20.664837
7.955777 16.665941 20.669001
7.983781 13.706673 20.693600
7.983780 13.735970 20.693104
7.983781 13.765280 20.693539
7.983780 13.794575 20.693043
7.983782 13.823886 20.693478
7.983783 13.853195 20.693911
7.983784 13.882505 20.694345
7.983781 13.911773 20.691999
7.983771 13.940983 20.685884
7.983764 13.970208 20.680750
7.983753 13.999405 20.673754
7.983743 14.028603 20.666759
7.983725 14.057714 20.654184
7.983707 14.086841 20.642550
7.983671 14.115783 20.618828
7.983636 14.144740 20.596033
7.983621 14.173880 20.585308
7.983606 14.203033 20.575523
7.983485 14.231127 20.495996
7.983364 14.259219 20.416431
7.983282 14.287708 20.362871
7.983201 14.316195 20.309311
7.983136 14.344855 20.266901
7.983073 14.373527 20.225410
7.983001 14.402113 20.178320
7.982930 14.430699 20.131218
7.982888 14.459584 20.103687
7.982848 14.488482 20.077084
7.982848 14.517777 20.076588
7.982847 14.547074 20.076080
7.982827 14.576171 20.062536
7.982790 14.605112 20.038673
7.982773 14.634236 20.026979
7.982759 14.663405 20.018095
7.982746 14.692574 20.009199
7.982739 14.721797 20.004034
7.982733 14.751037 19.999809
7.982725 14.780262 19.994644
7.982719 14.809501 19.990417
7.982719 14.838797 19.989923
7.982720 14.868108 19.990356
7.982725 14.897459 19.993591
7.982732 14.926826 19.997765
7.982737 14.956179 20.000998
7.982742 14.985531 20.004232
7.982749 15.014898 20.008396
7.982756 15.044265 20.012569
7.982762 15.073632 20.016733
7.982769 15.102999 20.020897
7.982772 15.132323 20.022270
7.982776 15.161661 20.024574
7.982789 15.191099 20.033407
7.982804 15.220551 20.043169
7.982845 15.250258 20.069721
7.982888 15.279980 20.097200
7.982911 15.309517 20.112514
7.982943 15.339125 20.132534
7.982974 15.368732 20.152546
7.983033 15.398625 20.191206
7.983093 15.428531 20.230785
7.983135 15.458237 20.257318
7.983245 15.488638 20.329443
7.983313 15.518615 20.373652
7.983362 15.548407 20.405752
7.983413 15.578212 20.438772
7.983545 15.608825 20.524805
7.983676 15.639437 20.610790
7.983712 15.669086 20.633532
7.983748 15.698750 20.657204
7.983747 15.728046 20.656717
7.983747 15.757342 20.656231
7.983768 15.786850 20.669674
7.983789 15.816358 20.683117
7.983799 15.845753 20.689129
7.983809 15.875162 20.696083
7.983819 15.904557 20.702097
7.983829 15.933952 20.708101
7.983835 15.963319 20.712263
7.983843 15.992699 20.717346
7.983841 16.021980 20.715931
7.983841 16.051277 20.715445
7.983835 16.080517 20.711239
7.983829 16.109756 20.707035
7.983817 16.138939 20.699120
7.983807 16.168137 20.692135
7.983797 16.197334 20.685139
7.983786 16.226530 20.678156
7.983766 16.255627 20.664621
7.983760 16.284866 20.660414
7.983754 16.314106 20.656210
7.983753 16.343403 20.655724
7.983753 16.372698 20.655237
7.983753 16.401993 20.654751
7.983752 16.431292 20.654264
7.983751 16.460587 20.653780
7.983753 16.489895 20.654215
7.983752 16.519192 20.653738
7.983753 16.548502 20.654171
7.983753 16.577799 20.653687
7.983754 16.607109 20.654131
7.983757 16.636448 20.656435
7.983763 16.665798 20.659668
8.011784 13.706701 20.695406
8.011783 13.735997 20.694921
8.011783 13.765292 20.694426
8.011782 13.794589 20.693930
8.011782 13.823885 20.693434
8.011781 13.853181 20.692940
8.011781 13.882476 20.692442
8.011778 13.911744 20.690096
8.011767 13.940941 20.683052
8.011760 13.970166 20.677916
8.011749 13.999362 20.670921
8.011741 14.028574 20.664856
8.011722 14.057686 20.652292
8.011703 14.086798 20.639717
8.011688 14.115952 20.629934
8.011673 14.145107 20.620148
8.011592 14.173596 20.566679
8.011512 14.202100 20.514118
8.011430 14.230575 20.459679
8.011348 14.259064 20.406149
8.011273 14.287622 20.357250
8.011199 14.316181 20.308340
8.011127 14.344769 20.261269
8.011057 14.373370 20.215118
8.010991 14.402013 20.171757
8.010927 14.430671 20.129316
8.010880 14.459513 20.098984
8.010835 14.488355 20.068651
8.010835 14.517650 20.068146
8.010834 14.546946 20.067650
8.010809 14.576001 20.051306
8.010766 14.604870 20.022772
8.010747 14.633981 20.010147
8.010733 14.663136 20.000324
8.010719 14.692304 19.991428
8.010716 14.721570 19.989073
8.010713 14.750837 19.986708
8.010710 14.780106 19.984343
8.010708 14.809386 19.982916
8.010707 14.838683 19.982422
8.010707 14.867979 19.981924
8.010708 14.897289 19.982359
8.010709 14.926599 19.982792
8.010712 14.955923 19.984165
8.010714 14.985248 19.985529
8.010720 15.014613 19.989693
8.010727 15.043981 19.993868
8.010734 15.073348 19.998032
8.010742 15.102729 20.003134
8.010749 15.132095 20.007309
8.010756 15.161476 20.012402
8.010769 15.190900 20.020306
8.010783 15.220339 20.029139
8.010799 15.249804 20.039831
8.010817 15.279269 20.050535
8.010905 15.309460 20.108740
8.010913 15.338826 20.112904
8.010921 15.368207 20.118008
8.010950 15.397801 20.137091
8.010981 15.427410 20.157112
8.011049 15.457386 20.201361
8.011184 15.488029 20.289345
8.011250 15.517991 20.332634
8.011325 15.548038 20.381502
8.011401 15.578098 20.431280
8.011505 15.608428 20.498718
8.011608 15.638758 20.566124
8.011667 15.668648 20.604681
8.011726 15.698538 20.643221
8.011726 15.727834 20.642736
8.011726 15.757131 20.642250
8.011751 15.786680 20.658482
8.011778 15.816244 20.675644
8.011789 15.845669 20.683517
8.011803 15.875091 20.691391
8.011810 15.904472 20.696476
8.011818 15.933853 20.701557
8.011827 15.963234 20.706650
8.011835 15.992614 20.711735
8.011837 16.021938 20.713099
8.011841 16.051277 20.715403
8.011835 16.080517 20.711197
8.011828 16.109756 20.706991
8.011823 16.138994 20.702797
8.011817 16.168236 20.698589
8.011806 16.197432 20.691595
8.011797 16.226643 20.685541
8.011777 16.255741 20.672007
8.011772 16.284994 20.668730
8.011767 16.314247 20.665457
8.011763 16.343502 20.662189
8.011759 16.372755 20.658913
8.011757 16.402035 20.657490
8.011756 16.431332 20.657013
8.011756 16.460630 20.656517
8.011756 16.489923 20.656031
8.011755 16.519220 20.655546
8.011754 16.548517 20.655060
8.011754 16.577812 20.654573
8.011754 16.607109 20.654087
8.011753 16.636406 20.653603
8.011753 16.665699 20.653116
8.039785 13.706715 20.696295
8.039784 13.736012 20.695808
8.039784 13.765306 20.695303
8.039783 13.794589 20.693888
8.039782 13.823885 20.693392
8.039780 13.853166 20.691965
8.039780 13.882463 20.691481
8.039776 13.911729 20.689125
8.039764 13.940912 20.681160
8.039755 13.970108 20.674154
8.039745 13.999320 20.668098
8.039737 14.028531 20.662024
8.039694 14.057404 20.633661
8.039650 14.086274 20.605297
8.039640 14.115471 20.598303
8.039631 14.144683 20.592230
8.039595 14.173624 20.568495
8.039559 14.202567 20.544762
8.039442 14.230701 20.468006
8.039327 14.258851 20.392139
8.039237 14.287254 20.333000
8.039146 14.315656 20.273829
8.039071 14.344202 20.223961
8.038997 14.372760 20.174999
8.038956 14.401658 20.148417
8.038916 14.430556 20.121815
8.038867 14.459371 20.089622
8.038818 14.488184 20.057421
8.038817 14.517480 20.056913
8.038816 14.546776 20.056417
8.038768 14.575587 20.024166
8.038750 14.604699 20.011541
8.038730 14.633810 19.998919
8.038721 14.663022 19.992821
8.038713 14.692231 19.986727
8.038708 14.721485 19.983431
8.038705 14.750751 19.981066
8.038702 14.780021 19.978710
8.038699 14.809301 19.977274
8.038699 14.838596 19.976780
8.038699 14.867893 19.976282
8.038699 14.897202 19.976717
8.038701 14.926513 19.977150
8.038701 14.955823 19.977585
8.038704 14.985148 19.978958
8.038707 15.014471 19.980324
8.038709 15.043796 19.981697
8.038717 15.073177 19.986792
8.038726 15.102558 19.991905
8.038732 15.131925 19.996069
8.038738 15.161291 20.000229
8.038746 15.190659 20.004404
8.038754 15.220039 20.009508
8.038786 15.249661 20.030458
8.038820 15.279298 20.052351
8.038873 15.309134 20.087250
8.038887 15.338571 20.096085
8.038902 15.368022 20.105848
8.038938 15.397674 20.128658
8.038975 15.427338 20.152411
8.039038 15.457273 20.193859
8.039143 15.487617 20.262285
8.039186 15.517339 20.289745
8.039255 15.547343 20.335825
8.039328 15.577362 20.382824
8.039439 15.607762 20.454939
8.039549 15.638163 20.527025
8.039637 15.668336 20.584181
8.039724 15.698508 20.641319
8.039723 15.727806 20.640833
8.039723 15.757101 20.640348
8.039757 15.786736 20.662159
8.039792 15.816385 20.684891
8.039799 15.845753 20.689043
8.039806 15.875134 20.694138
8.039815 15.904513 20.699221
8.039824 15.933895 20.704306
8.039829 15.963262 20.708469
8.039838 15.992642 20.713543
8.039841 16.021965 20.714916
8.039843 16.051291 20.716280
8.039841 16.080572 20.714874
8.039840 16.109854 20.713449
8.039833 16.139093 20.709253
8.039827 16.168333 20.705048
8.039819 16.197559 20.699911
8.039813 16.226797 20.695717
8.039793 16.255896 20.682182
8.039783 16.285107 20.676117
8.039777 16.314333 20.670992
8.039771 16.343573 20.666786
8.039765 16.372826 20.663511
8.039762 16.402077 20.660234
8.039757 16.431332 20.656969
8.039756 16.460629 20.656475
8.039756 16.489923 20.655989
8.039756 16.519220 20.655502
8.039755 16.548517 20.655016
8.039755 16.577810 20.654531
8.039754 16.607109 20.654045
8.039754 16.636406 20.653559
8.039754 16.665699 20.653072
8.067786 13.706729 20.697184
8.067785 13.736025 20.696686
8.067785 13.765321 20.696199
8.067784 13.794601 20.694775
8.067782 13.823899 20.694279
8.067781 13.853180 20.692854
8.067781 13.882476 20.692356
8.067778 13.911743 20.690010
8.067767 13.940940 20.682966
8.067759 13.970151 20.676901
8.067748 13.999347 20.669905
8.067739 14.028560 20.663841
8.067720 14.057671 20.651276
8.067702 14.086798 20.639631
8.067667 14.115739 20.615910
8.067631 14.144682 20.592186
8.067570 14.173369 20.551725
8.067510 14.202070 20.512175
8.067393 14.230220 20.436335
8.067280 14.258383 20.361378
8.067203 14.286914 20.310610
8.067125 14.315444 20.259819
8.067057 14.344060 20.214598
8.066990 14.372688 20.170307
8.066952 14.401615 20.145575
8.066916 14.430556 20.121771
8.066863 14.459328 20.086781
8.066811 14.488112 20.052708
8.066811 14.517407 20.052212
8.066810 14.546705 20.051716
8.066759 14.575502 20.018524
8.066741 14.604614 20.005899
8.066723 14.633739 19.994215
8.066714 14.662950 19.988119
8.066706 14.692161 19.982025
8.066702 14.721427 19.979658
8.066699 14.750695 19.977293
8.066697 14.779977 19.975859
8.066696 14.809273 19.975361
8.066696 14.838568 19.974865
8.066696 14.867866 19.974369
8.066695 14.897161 19.973875
8.066695 14.926455 19.973379
8.066694 14.955751 19.972881
8.066694 14.985047 19.972385
8.066695 15.014358 19.972822
8.066697 15.043681 19.974195
8.066700 15.073007 19.975559
8.066704 15.102345 19.977863
8.066708 15.131683 19.980165
8.066711 15.161021 19.982470
8.066720 15.190402 19.987564
8.066728 15.219784 19.992666
8.066765 15.249448 20.016428
8.066801 15.279113 20.040188
8.066850 15.308906 20.072290
8.066875 15.338457 20.088572
8.066900 15.368008 20.104874
8.066910 15.397404 20.110909
8.066921 15.426813 20.117872
8.066980 15.456704 20.156530
8.067105 15.487247 20.238016
8.067172 15.517210 20.281313
8.067244 15.547230 20.328333
8.067318 15.577262 20.376270
8.067399 15.607366 20.428839
8.067479 15.637469 20.481398
8.067581 15.667785 20.547884
8.067683 15.698098 20.614328
8.067737 15.727932 20.649149
8.067790 15.757766 20.683969
8.067789 15.787061 20.683475
8.067789 15.816357 20.682989
8.067809 15.845851 20.695511
8.067829 15.875360 20.708954
8.067833 15.904697 20.711246
8.067839 15.934051 20.714481
8.067841 15.963374 20.715845
8.067843 15.992698 20.717218
8.067843 16.021994 20.716732
8.067842 16.051291 20.716238
8.067841 16.080572 20.714832
8.067840 16.109854 20.713406
8.067833 16.139093 20.709211
8.067828 16.168346 20.705935
8.067822 16.197586 20.701731
8.067816 16.226826 20.697533
8.067796 16.255924 20.684000
8.067785 16.285120 20.677004
8.067777 16.314331 20.670948
8.067771 16.343571 20.666744
8.067765 16.372826 20.663467
8.067761 16.402077 20.660192
8.067757 16.431332 20.656927
8.067756 16.460629 20.656431
8.067756 16.489922 20.655947
8.067756 16.519220 20.655460
8.067755 16.548517 20.654974
8.067755 16.577810 20.654488
8.067755 16.607121 20.654930
8.067755 16.636419 20.654446
8.067757 16.665728 20.654890
8.095788 13.706741 20.698069
8.095785 13.736025 20.696642
8.095785 13.765320 20.696157
8.095784 13.794601 20.694733
8.095781 13.823884 20.693306
8.095779 13.853166 20.691879
8.095779 13.882462 20.691395
8.095778 13.911743 20.689968
8.095767 13.940940 20.682924
8.095758 13.970150 20.676857
8.095748 13.999347 20.669863
8.095739 14.028559 20.663799
8.095719 14.057657 20.650305
8.095699 14.086768 20.637730
8.095666 14.115725 20.614935
8.095631 14.144682 20.592144
8.095559 14.173270 20.545172
8.095490 14.201872 20.499111
8.095376 14.230049 20.425125
8.095265 14.258241 20.352026
8.095196 14.286842 20.305906
8.095125 14.315444 20.259775
8.095062 14.344116 20.218285
8.094999 14.372787 20.176785
8.094935 14.401459 20.135273
8.094874 14.430145 20.094690
8.094839 14.459086 20.070879
8.094802 14.488027 20.047075
8.094802 14.517323 20.046579
8.094801 14.546618 20.046074
8.094758 14.575488 20.017551
8.094735 14.604556 20.002127
8.094711 14.633625 19.986704
8.094695 14.662766 19.975948
8.094680 14.691905 19.965183
8.094671 14.721129 19.960030
8.094665 14.750353 19.954863
8.094659 14.779593 19.950638
8.094653 14.808846 19.947332
8.094653 14.838142 19.946836
8.094653 14.867438 19.946341
8.094652 14.896734 19.945845
8.094653 14.926044 19.946278
8.094658 14.955397 19.949512
8.094664 14.984750 19.952745
8.094674 15.014144 19.958790
8.094684 15.043553 19.965754
8.094697 15.072977 19.973646
8.094709 15.102402 19.981548
8.094722 15.131824 19.989452
8.094734 15.161248 19.997345
8.094743 15.190630 20.002449
8.094751 15.220025 20.008484
8.094760 15.249406 20.013584
8.094769 15.278786 20.018688
8.094793 15.308337 20.034933
8.094823 15.337931 20.054033
8.094851 15.367525 20.073126
8.094877 15.397077 20.089418
8.094904 15.426642 20.106630
8.094962 15.456519 20.144369
8.095065 15.486851 20.211876
8.095113 15.516615 20.242136
8.095210 15.546888 20.305933
8.095307 15.577163 20.369709
8.095387 15.607251 20.421347
8.095466 15.637341 20.472975
8.095570 15.667670 20.540392
8.095674 15.697999 20.607777
8.095728 15.727847 20.643538
8.095784 15.757709 20.680206
8.095783 15.787004 20.679720
8.095783 15.816299 20.679235
8.095806 15.845823 20.693607
8.095827 15.875344 20.707979
8.095833 15.904697 20.711203
8.095840 15.934064 20.715366
8.095842 15.963388 20.716730
8.095846 15.992726 20.719027
8.095846 16.022022 20.718540
8.095845 16.051319 20.718054
8.095843 16.080601 20.716637
8.095843 16.109896 20.716152
8.095837 16.139135 20.711946
8.095831 16.168375 20.707752
8.095823 16.197599 20.702616
8.095816 16.226826 20.697491
8.095792 16.255880 20.681168
8.095779 16.285065 20.673252
8.095769 16.314260 20.666256
8.095763 16.343500 20.662062
8.095757 16.372740 20.657856
8.095753 16.401993 20.654581
8.095750 16.431261 20.652235
8.095750 16.460571 20.652679
8.095752 16.489880 20.653122
8.095753 16.519192 20.653566
8.095753 16.548502 20.654001
8.095755 16.577810 20.654446
8.095755 16.607121 20.654888
8.095760 16.636475 20.658123
8.095766 16.665827 20.661356
8.123779 13.706657 20.692457
8.123778 13.735954 20.691961
8.123778 13.765249 20.691463
8.123778 13.794544 20.690969
8.123777 13.823841 20.690483
8.123776 13.853137 20.689987
8.123776 13.882433 20.689491
8.123775 13.911714 20.688066
8.123766 13.940926 20.681961
8.123757 13.970136 20.675886
8.123723 13.999106 20.654032
8.123693 14.028092 20.633108
8.123693 14.057402 20.633533
8.123695 14.086725 20.634895
8.123643 14.115498 20.600035
8.123590 14.144285 20.566072
8.123533 14.173015 20.528391
8.123478 14.201759 20.491631
8.123375 14.230035 20.424150
8.123272 14.258312 20.356644
8.123196 14.286842 20.305864
8.123119 14.315386 20.256002
8.123062 14.344116 20.218243
8.123007 14.372858 20.181400
8.122940 14.401502 20.138029
8.122875 14.430158 20.095579
8.122839 14.459086 20.070837
8.122802 14.488027 20.047031
8.122802 14.517323 20.046537
8.122801 14.546618 20.046032
8.122759 14.575501 20.018438
8.122735 14.604556 20.002085
8.122711 14.633624 19.986660
8.122694 14.662751 19.974976
8.122678 14.691890 19.964211
8.122668 14.721101 19.958117
8.122662 14.750325 19.952951
8.122654 14.779551 19.947786
8.122647 14.808789 19.943569
8.122647 14.838084 19.943064
8.122647 14.867381 19.942570
8.122646 14.896677 19.942072
8.122646 14.925973 19.941576
8.122651 14.955325 19.944811
8.122658 14.984693 19.948975
8.122663 15.014045 19.952217
8.122668 15.043398 19.955452
8.122677 15.072779 19.960545
8.122685 15.102160 19.965649
8.122693 15.131540 19.970753
8.122702 15.160921 19.975857
8.122706 15.190274 19.979090
8.122711 15.219626 19.982323
8.122737 15.249178 19.998625
8.122764 15.278743 20.015846
8.122763 15.308040 20.015301
8.122811 15.337817 20.046522
8.122859 15.367595 20.077742
8.122860 15.396907 20.078176
8.122862 15.426216 20.078619
8.122914 15.456051 20.113560
8.123017 15.486367 20.180147
8.123065 15.516147 20.211348
8.123181 15.546605 20.287262
8.123298 15.577064 20.363148
8.123353 15.606912 20.398968
8.123409 15.636774 20.435707
8.123508 15.667062 20.500353
8.123610 15.697362 20.565899
8.123679 15.727366 20.611898
8.123750 15.757369 20.657877
8.123749 15.786665 20.657381
8.123749 15.815960 20.656897
8.123776 15.845526 20.674059
8.123802 15.875090 20.691219
8.123811 15.904470 20.696304
8.123818 15.933852 20.701387
8.123825 15.963218 20.705551
8.123832 15.992585 20.709705
8.123835 16.021908 20.711069
8.123837 16.051249 20.713371
8.123839 16.080557 20.713816
8.123842 16.109882 20.715179
8.123836 16.139120 20.710985
8.123830 16.168360 20.706778
8.123817 16.197544 20.698864
8.123806 16.226727 20.690939
8.123783 16.255796 20.675556
8.123771 16.284979 20.667629
8.123760 16.314177 20.660645
8.123755 16.343414 20.656441
8.123748 16.372654 20.652233
8.123748 16.401949 20.651747
8.123750 16.431261 20.652191
8.123750 16.460571 20.652637
8.123752 16.489880 20.653080
8.123753 16.519190 20.653524
8.123753 16.548502 20.653957
8.123755 16.577810 20.654402
8.123755 16.607121 20.654846
8.123759 16.636459 20.657150
8.123765 16.665812 20.660374
8.151779 13.706657 20.692415
8.151779 13.735968 20.692848
8.151781 13.765278 20.693283
8.151782 13.794587 20.693716
8.151782 13.823898 20.694149
8.151784 13.853208 20.694584
8.151785 13.882517 20.695019
8.151783 13.911798 20.693604
8.151772 13.940981 20.685629
8.151763 13.970192 20.679562
8.151752 13.999389 20.672567
8.151742 14.028586 20.665573
8.151722 14.057684 20.652079
8.151702 14.086797 20.639503
8.151667 14.115738 20.615780
8.151630 14.144681 20.592058
8.151561 14.173284 20.546017
8.151491 14.201885 20.499956
8.151383 14.230120 20.429689
8.151277 14.258353 20.359390
8.151201 14.286899 20.309540
8.151125 14.315443 20.259691
8.151065 14.344144 20.220058
8.151005 14.372844 20.180428
8.150957 14.401670 20.149176
8.150911 14.430512 20.118843
8.150860 14.459298 20.084782
8.150809 14.488097 20.051651
8.150809 14.517393 20.051153
8.150807 14.546690 20.050657
8.150755 14.575459 20.015594
8.150731 14.604513 19.999243
8.150707 14.633581 19.983818
8.150689 14.662707 19.972124
8.150672 14.691833 19.960440
8.150664 14.721057 19.955273
8.150659 14.750297 19.951048
8.150651 14.779522 19.945883
8.150643 14.808746 19.940718
8.150643 14.838042 19.940222
8.150643 14.867339 19.939726
8.150642 14.896634 19.939230
8.150641 14.925929 19.938734
8.150640 14.955225 19.938229
8.150642 14.984535 19.938671
8.150643 15.013845 19.939106
8.150644 15.043155 19.939541
8.150649 15.072509 19.942774
8.150657 15.101875 19.946949
8.150662 15.131243 19.951122
8.150670 15.160608 19.955286
8.150677 15.189976 19.959448
8.150684 15.219357 19.964552
8.150713 15.248936 19.982714
8.150742 15.278516 20.000877
8.150780 15.308209 20.026457
8.150811 15.337817 20.046478
8.150843 15.367439 20.067440
8.150850 15.396807 20.071604
8.150857 15.426173 20.075777
8.150908 15.455979 20.108847
8.151004 15.486239 20.171715
8.151051 15.516004 20.201984
8.151121 15.546009 20.248083
8.151193 15.576014 20.294184
8.151292 15.606302 20.358889
8.151390 15.636590 20.423565
8.151520 15.667175 20.507759
8.151650 15.697772 20.592823
8.151711 15.727676 20.632294
8.151772 15.757581 20.671762
8.151771 15.786876 20.671276
8.151771 15.816173 20.670790
8.151795 15.845723 20.687025
8.151820 15.875274 20.703245
8.151827 15.904639 20.707409
8.151834 15.934008 20.711563
8.151837 15.963346 20.713858
8.151842 15.992682 20.716160
8.151846 16.022022 20.718454
8.151849 16.051361 20.720758
8.151849 16.080656 20.720272
8.151849 16.109951 20.719788
8.151842 16.139191 20.715582
8.151836 16.168430 20.711374
8.151827 16.197643 20.705320
8.151820 16.226868 20.700186
8.151798 16.255951 20.685732
8.151786 16.285133 20.677805
8.151774 16.314316 20.669891
8.151769 16.343555 20.665686
8.151762 16.372795 20.661480
8.151759 16.402061 20.659134
8.151756 16.431332 20.656799
8.151755 16.460629 20.656303
8.151757 16.489937 20.656746
8.151758 16.519247 20.657190
8.151758 16.548557 20.657637
8.151758 16.577854 20.657150
