12.449222 18.242176 21.926533
12.449212 18.271402 21.928635
12.449211 18.300695 21.929787
12.449203 18.329922 21.931877
12.449202 18.359211 21.933041
12.476449 15.393445 21.915051
12.476447 15.422740 21.916204
12.476447 15.452031 21.917356
12.476439 15.481258 21.919437
12.476438 15.510552 21.920589
12.476429 15.539776 21.922670
12.476428 15.569071 21.923824
12.476419 15.598296 21.925905
12.476435 15.627727 21.925194
12.476449 15.657153 21.924490
12.476480 15.686715 21.921934
12.476503 15.716212 21.920296
12.476542 15.745842 21.916811
12.476572 15.775405 21.914244
12.476657 15.805441 21.905174
12.476744 15.835478 21.896105
12.476932 15.866386 21.874956
12.477111 15.897233 21.854727
12.477180 15.927133 21.847523
12.477250 15.957033 21.840298
12.477580 15.989161 21.802406
12.477909 16.021288 21.764502
12.478529 16.055916 21.692162
12.479142 16.090475 21.620739
12.479645 16.124092 21.562309
12.480147 16.157711 21.503883
12.480556 16.190517 21.456615
12.480964 16.223324 21.409346
12.481199 16.254646 21.382555
12.481435 16.285969 21.355762
12.481584 16.316544 21.339224
12.481725 16.347055 21.323610
12.481890 16.377768 21.305197
12.482054 16.408480 21.286791
12.482045 16.437706 21.288872
12.482036 16.466932 21.290962
12.482130 16.497036 21.280937
12.482224 16.527142 21.270910
12.482309 16.557177 21.261820
12.482443 16.587624 21.247095
12.482481 16.617254 21.243589
12.482481 16.646547 21.244743
12.482472 16.675774 21.246834
12.482463 16.704998 21.248915
12.482455 16.734224 21.250996
12.482447 16.763451 21.253088
12.482437 16.792677 21.255169
12.482430 16.821901 21.257259
12.482420 16.851130 21.259340
12.482411 16.880354 21.261429
12.482395 16.909512 21.264448
12.482378 16.938669 21.267467
12.482354 16.967760 21.271412
12.482156 16.995363 21.295864
12.481958 17.022964 21.320305
12.481809 17.050976 21.339151
12.481650 17.078918 21.358934
12.481453 17.106518 21.383385
12.481248 17.134056 21.408754
12.481192 17.162876 21.416430
12.481128 17.191629 21.425032
12.480883 17.218826 21.455069
12.480639 17.246025 21.485096
12.480323 17.272614 21.523499
12.479755 17.297043 21.591675
12.479495 17.324106 21.623556
12.479265 17.351440 21.651707
12.479037 17.378777 21.679857
12.478643 17.404690 21.727556
12.478249 17.430607 21.775246
12.478044 17.458145 21.800596
12.477831 17.485613 21.826872
12.477822 17.514839 21.828962
12.477814 17.544067 21.831053
12.477695 17.572346 21.846159
12.477568 17.600559 21.862202
12.477497 17.629246 21.871733
12.477425 17.657930 21.881264
12.477369 17.686750 21.888929
12.477305 17.715502 21.897533
12.477289 17.744661 21.900553
12.477264 17.773752 21.904507
12.477263 17.803043 21.905661
12.477255 17.832270 21.907761
12.477255 17.861565 21.908915
12.477262 17.890924 21.909121
12.477253 17.920151 21.911201
12.477251 17.949444 21.912365
12.477251 17.978735 21.913527
12.477250 18.008028 21.914690
12.477242 18.037252 21.916780
12.477241 18.066547 21.917944
12.477232 18.095772 21.920034
12.477223 18.124996 21.922127
12.477215 18.154222 21.924217
12.477205 18.183447 21.926308
12.477197 18.212673 21.928396
12.477189 18.241899 21.930489
12.477180 18.271126 21.932579
12.477171 18.300348 21.934669
12.477162 18.329575 21.936760
12.477161 18.358868 21.937923
12.504440 15.393369 21.916214
12.504438 15.422663 21.917366
12.504446 15.452024 21.917593
12.504446 15.481318 21.918736
12.504444 15.510611 21.919899
12.504436 15.539836 21.921980
12.504435 15.569131 21.923132
12.504435 15.598421 21.924286
12.504473 15.628053 21.920792
12.504503 15.657618 21.918224
12.504534 15.687180 21.915668
12.504565 15.716743 21.913101
12.504611 15.746442 21.908678
12.504658 15.776138 21.904257
12.504750 15.806241 21.894260
12.504836 15.836277 21.885191
12.504993 15.866919 21.867752
12.505141 15.897493 21.851244
12.505227 15.927528 21.842175
12.505304 15.957497 21.834032
12.505798 15.991043 21.776602
12.506286 16.024519 21.720089
12.506858 16.058743 21.653322
12.507424 16.092899 21.587465
12.507841 16.125771 21.539280
12.508248 16.158579 21.492010
12.508649 16.191320 21.445681
12.509049 16.224060 21.399332
12.509324 16.255718 21.367891
12.509591 16.287310 21.337379
12.509771 16.318159 21.317099
12.509944 16.348938 21.297768
12.509935 16.378162 21.299847
12.509927 16.407391 21.301928
12.510036 16.437632 21.290047
12.510145 16.467869 21.278154
12.510240 16.497974 21.268127
12.510325 16.528013 21.259037
12.510403 16.557980 21.250875
12.510489 16.588020 21.241745
12.510488 16.617315 21.242899
12.510488 16.646606 21.244053
12.510487 16.675900 21.245207
12.510486 16.705193 21.246359
12.510486 16.734488 21.247513
12.510485 16.763781 21.248665
12.510476 16.793005 21.250746
12.510468 16.822231 21.252836
12.510458 16.851460 21.254917
12.510449 16.880682 21.257010
12.510433 16.909842 21.260027
12.510408 16.938932 21.263973
12.510385 16.968021 21.267918
12.510265 16.996302 21.283052
12.510139 17.024513 21.299109
12.510020 17.052794 21.314232
12.509901 17.081072 21.329369
12.509743 17.109013 21.349154
12.509577 17.136887 21.369875
12.509513 17.165638 21.378477
12.509441 17.194323 21.388018
12.509117 17.220846 21.427361
12.508795 17.247370 21.466702
12.508558 17.274632 21.495800
12.508312 17.301830 21.525827
12.507801 17.326733 21.587477
12.507453 17.353052 21.629601
12.507107 17.379375 21.671715
12.506721 17.405357 21.718489
12.506327 17.431273 21.766176
12.506318 17.460501 21.768259
12.506310 17.489723 21.770359
12.506135 17.517532 21.791986
12.505961 17.545340 21.813616
12.505827 17.573484 21.830578
12.505692 17.601631 21.847557
12.505613 17.630249 21.858017
12.505526 17.658798 21.869411
12.505470 17.687620 21.877077
12.505407 17.716372 21.885681
12.505350 17.745192 21.893347
12.505295 17.774014 21.901024
12.505285 17.803238 21.903114
12.505270 17.832396 21.906132
12.505261 17.861622 21.908222
12.505260 17.890917 21.909355
12.505260 17.920210 21.910509
12.505259 17.949503 21.911673
12.505258 17.978794 21.912836
12.505258 18.008089 21.913998
12.505256 18.037378 21.915152
12.505256 18.066673 21.916315
12.505255 18.095966 21.917479
12.505254 18.125259 21.918642
12.505245 18.154484 21.920732
12.505236 18.183710 21.922825
12.505227 18.212934 21.924913
12.505227 18.242228 21.926077
12.505218 18.271454 21.928167
12.505209 18.300678 21.930258
12.505200 18.329905 21.932348
12.505199 18.359194 21.933512
12.532439 15.393361 21.916451
12.532437 15.422655 21.917603
12.532437 15.451946 21.918756
12.532436 15.481241 21.919909
12.532435 15.510535 21.921061
12.532434 15.539826 21.922216
12.532434 15.569121 21.923368
12.532425 15.598347 21.925449
12.532456 15.627911 21.922882
12.532486 15.657474 21.920315
12.532525 15.687102 21.916832
12.532557 15.716667 21.914263
12.532634 15.746634 21.906134
12.532711 15.776601 21.897991
12.532797 15.806638 21.888920
12.532883 15.836674 21.879852
12.533000 15.866977 21.867062
12.533109 15.897216 21.855200
12.533187 15.927183 21.847057
12.533264 15.957150 21.838915
12.533790 15.990966 21.777775
12.534316 16.024780 21.716602
12.534904 16.059139 21.647972
12.535494 16.093498 21.579323
12.535903 16.126305 21.532064
12.536310 16.159111 21.484808
12.536688 16.191648 21.441259
12.537064 16.224184 21.397713
12.537378 16.256184 21.361605
12.537685 16.288115 21.326435
12.537896 16.319231 21.302433
12.538100 16.350283 21.279371
12.538092 16.379507 21.281452
12.538083 16.408733 21.283533
12.538193 16.438974 21.271643
12.538294 16.469145 21.260689
12.538387 16.499250 21.250669
12.538474 16.529287 21.241571
12.538520 16.558985 21.237139
12.538590 16.588890 21.229876
12.538612 16.618387 21.228226
12.538636 16.647882 21.226585
12.538659 16.677380 21.224947
12.538681 16.706875 21.223307
12.538705 16.736370 21.221668
12.538696 16.765598 21.223749
12.538687 16.794823 21.225840
12.538663 16.823912 21.229784
12.538630 16.852936 21.234669
12.538598 16.881958 21.239542
12.538567 16.910980 21.244425
12.538526 16.939938 21.250237
12.538486 16.968893 21.256046
12.538327 16.996834 21.275841
12.538169 17.024773 21.295624
12.538051 17.053053 21.310749
12.537931 17.081333 21.325876
12.537782 17.109341 21.344730
12.537623 17.137283 21.364515
12.537417 17.164820 21.389894
12.537205 17.192287 21.416201
12.537164 17.221241 21.422012
12.537116 17.250132 21.428749
12.536856 17.277193 21.460649
12.536587 17.304186 21.493469
12.535957 17.328075 21.569094
12.535570 17.354059 21.615875
12.535184 17.380043 21.662647
12.535082 17.408455 21.675907
12.534978 17.436871 21.689159
12.534584 17.462788 21.736858
12.534183 17.488634 21.785475
12.533985 17.516241 21.809895
12.533788 17.543846 21.834318
12.533778 17.573072 21.836399
12.533771 17.602297 21.838490
12.533660 17.630646 21.852678
12.533541 17.658926 21.867783
12.533484 17.687744 21.875458
12.533422 17.716497 21.884052
12.533358 17.745251 21.892656
12.533294 17.774006 21.901260
12.533277 17.803162 21.904278
12.533253 17.832253 21.908234
12.533244 17.861479 21.910313
12.533236 17.890705 21.912374
12.533235 17.919998 21.913536
12.533234 17.949293 21.914701
12.533233 17.978584 21.915865
12.533240 18.007944 21.916090
12.533239 18.037235 21.917252
12.533238 18.066530 21.918417
12.533238 18.095823 21.919569
12.533237 18.125114 21.920732
12.533237 18.154409 21.921896
12.533227 18.183636 21.923986
12.533218 18.212858 21.926077
12.533210 18.242085 21.928169
12.533201 18.271311 21.930269
12.533200 18.300600 21.931423
12.533199 18.329895 21.932585
12.533198 18.359186 21.933748
12.560273 15.391936 21.936184
12.560319 15.421635 21.931770
12.560357 15.451264 21.928278
12.560396 15.480897 21.924782
12.560388 15.510122 21.926863
12.560379 15.539347 21.928953
12.560377 15.568642 21.930107
12.560369 15.597865 21.932188
12.560409 15.627497 21.928694
12.560446 15.657128 21.925200
12.560485 15.686759 21.921703
12.560524 15.716388 21.918221
12.560570 15.746087 21.913799
12.560608 15.775717 21.910305
12.560701 15.805819 21.900307
12.560787 15.835855 21.891237
12.560921 15.866295 21.876593
12.561052 15.896735 21.861948
12.561123 15.926634 21.854733
12.561192 15.956535 21.847519
12.561608 15.989407 21.799393
12.562024 16.022274 21.751259
12.562699 16.057375 21.672405
12.563367 16.092409 21.594450
12.563784 16.125282 21.546263
12.564191 16.158089 21.499006
12.564569 16.190626 21.455467
12.564945 16.223164 21.411911
12.565268 16.255228 21.374886
12.565589 16.287292 21.337851
12.565784 16.318275 21.315716
12.565973 16.349192 21.294508
12.565965 16.378416 21.296598
12.565956 16.407642 21.298679
12.566058 16.437817 21.287716
12.566158 16.467987 21.276760
12.566253 16.498093 21.266733
12.566339 16.528131 21.257645
12.566440 16.558300 21.246691
12.566582 16.588814 21.231037
12.566611 16.618380 21.228462
12.566635 16.647875 21.226822
12.566658 16.677370 21.225183
12.566680 16.706865 21.223543
12.566704 16.736362 21.221905
12.566695 16.765589 21.223986
12.566686 16.794813 21.226076
12.566654 16.823837 21.230959
12.566621 16.852861 21.235832
12.566589 16.881882 21.240715
12.566549 16.910837 21.246525
12.566509 16.939795 21.252337
12.566469 16.968748 21.258148
12.566421 16.997637 21.264896
12.566365 17.026455 21.272572
12.566199 17.054331 21.293283
12.566025 17.082136 21.314930
12.566016 17.111361 21.317022
12.566008 17.140587 21.319113
12.565700 17.167244 21.356600
12.565384 17.193832 21.395014
12.565383 17.223127 21.396166
12.565374 17.252354 21.398247
12.565043 17.278805 21.438526
12.564712 17.305260 21.478806
12.564027 17.328676 21.560953
12.563891 17.356819 21.577934
12.563758 17.384966 21.594915
12.563411 17.411285 21.637039
12.563056 17.437538 21.680090
12.562670 17.463522 21.726862
12.562284 17.489506 21.773613
12.561999 17.516369 21.808268
12.561716 17.543230 21.842920
12.561707 17.572454 21.845013
12.561698 17.601681 21.847103
12.561572 17.629894 21.863146
12.561445 17.658106 21.879179
12.561390 17.686928 21.886856
12.561334 17.715748 21.894522
12.561309 17.744837 21.898478
12.561277 17.773861 21.903351
12.561260 17.803019 21.906368
12.561244 17.832176 21.909388
12.561235 17.861403 21.911488
12.561234 17.890697 21.912611
12.561226 17.919924 21.914701
12.561225 17.949215 21.915865
12.561224 17.978508 21.917027
12.561224 18.007801 21.918180
12.561222 18.037092 21.919346
12.561222 18.066385 21.920507
12.561221 18.095680 21.921671
12.561212 18.124905 21.923761
12.561204 18.154129 21.925852
12.561194 18.183355 21.927942
12.561186 18.212580 21.930033
12.561177 18.241804 21.932123
12.561169 18.271030 21.934225
12.561160 18.300257 21.936306
12.561151 18.329481 21.938406
12.561151 18.358772 21.939569
12.588178 15.391120 21.947569
12.588231 15.420886 21.942221
12.588278 15.450581 21.937809
12.588317 15.480213 21.934313
12.588346 15.509777 21.931747
12.588370 15.539270 21.930119
12.588361 15.568498 21.932199
12.588352 15.597723 21.934278
12.588352 15.627017 21.935432
12.588350 15.656310 21.936586
12.588389 15.685940 21.933090
12.588428 15.715571 21.929596
12.588467 15.745201 21.926113
12.588505 15.774831 21.922617
12.588567 15.804665 21.916342
12.588629 15.834499 21.910055
12.588715 15.864532 21.900995
12.588800 15.894567 21.891924
12.588933 15.925007 21.877281
12.589057 15.955379 21.863564
12.589167 15.985618 21.851702
12.589276 16.015856 21.839838
12.589982 16.051224 21.757296
12.590682 16.086525 21.675648
12.591129 16.119667 21.623764
12.591569 16.152744 21.572786
12.591962 16.185415 21.527393
12.592354 16.218086 21.481991
12.592715 16.250488 21.440308
12.593077 16.282892 21.398624
12.593398 16.314955 21.361591
12.593720 16.347021 21.324554
12.593932 16.378138 21.300556
12.594136 16.409189 21.277494
12.594128 16.438416 21.279575
12.594118 16.467642 21.281654
12.594213 16.497747 21.271627
12.594306 16.527851 21.261600
12.594423 16.558157 21.248791
12.594572 16.588739 21.232212
12.594603 16.618303 21.229624
12.594634 16.647865 21.227057
12.594657 16.677362 21.225420
12.594679 16.706858 21.223780
12.594703 16.736353 21.222141
12.594702 16.765648 21.223293
12.594693 16.794872 21.225374
12.594661 16.823895 21.230257
12.594620 16.852852 21.236067
12.594581 16.881807 21.241879
12.594541 16.910763 21.247690
12.594500 16.939716 21.253510
12.594452 16.968605 21.260248
12.594419 16.997629 21.265133
12.594379 17.026581 21.270943
12.594332 17.055470 21.277691
12.594275 17.084291 21.285368
12.594212 17.113043 21.293970
12.594141 17.141727 21.303511
12.593887 17.168858 21.334476
12.593627 17.195921 21.366367
12.593452 17.223726 21.388014
12.593279 17.251534 21.409664
12.593184 17.280014 21.421995
12.593088 17.308496 21.434330
12.592868 17.335896 21.461565
12.592292 17.360258 21.530676
12.591937 17.386513 21.573736
12.591693 17.413708 21.603764
12.591448 17.440907 21.633780
12.591196 17.468039 21.664734
12.590936 17.495100 21.696606
12.590549 17.521086 21.743376
12.590163 17.547071 21.790129
12.589879 17.573933 21.824781
12.589595 17.600794 21.859436
12.589587 17.630020 21.861517
12.589578 17.659246 21.863607
12.589467 17.687593 21.877785
12.589349 17.715872 21.892902
12.589324 17.744965 21.896847
12.589292 17.773989 21.901731
12.589267 17.803076 21.905676
12.589243 17.832169 21.909624
12.589234 17.861395 21.911724
12.589226 17.890619 21.913773
12.589217 17.919846 21.915865
12.589215 17.949141 21.917027
12.589208 17.978365 21.919119
12.589207 18.007658 21.920280
12.589206 18.036949 21.921446
12.589205 18.066242 21.922609
12.589196 18.095467 21.924700
12.589195 18.124760 21.925852
12.589194 18.154055 21.927015
12.589186 18.183281 21.929106
12.589177 18.212503 21.931208
12.589169 18.241730 21.933289
12.589159 18.270956 21.935387
12.589151 18.300179 21.937479
12.589142 18.329405 21.939569
12.589133 18.358629 21.941660
12.616232 15.391582 21.941303
12.616269 15.421213 21.937819
12.616316 15.450911 21.933397
12.616363 15.480610 21.928976
12.616362 15.509902 21.930128
12.616353 15.539127 21.932209
12.616352 15.568422 21.933361
12.616343 15.597646 21.935442
12.616343 15.626941 21.936596
12.616334 15.656168 21.938677
12.616342 15.685528 21.938902
12.616341 15.714821 21.940056
12.616379 15.744452 21.936571
12.616410 15.774014 21.934006
12.616456 15.803712 21.929583
12.616494 15.833344 21.926088
12.616557 15.863175 21.919811
12.616618 15.893009 21.913532
12.616720 15.923176 21.902609
12.616813 15.953280 21.892601
12.616961 15.983856 21.876102
12.617110 16.014429 21.859592
12.617471 16.046827 21.817980
12.617831 16.079226 21.776358
12.618428 16.113649 21.706820
12.619017 16.148006 21.638178
12.619441 16.180948 21.589075
12.619857 16.213821 21.540890
12.620399 16.247776 21.477795
12.620934 16.281666 21.415627
12.621216 16.313393 21.383249
12.621499 16.345121 21.350863
12.621688 16.376034 21.329664
12.621875 16.406950 21.308466
12.622008 16.437393 21.293783
12.622141 16.467834 21.279099
12.622132 16.497061 21.281179
12.622125 16.526287 21.283270
12.622367 16.557676 21.255508
12.622485 16.587986 21.242689
12.622594 16.618227 21.230797
12.622633 16.647858 21.227293
12.622663 16.677422 21.224718
12.622694 16.706984 21.222151
12.622725 16.736547 21.219584
12.622732 16.765909 21.219799
12.622731 16.795202 21.220953
12.622730 16.824495 21.222105
12.622729 16.853790 21.223257
12.622721 16.883013 21.225349
12.622713 16.912241 21.227440
12.622704 16.941467 21.229521
12.622687 16.970623 21.232538
12.622670 16.999783 21.235558
12.622654 17.028940 21.238577
12.622606 17.057829 21.245314
12.622550 17.086647 21.253000
12.622502 17.115534 21.259737
12.622455 17.144423 21.266487
12.622232 17.171824 21.293730
12.622005 17.199156 21.321892
12.621995 17.228382 21.323982
12.621986 17.257608 21.326073
12.621750 17.284872 21.355171
12.621505 17.312071 21.385208
12.621426 17.340687 21.395676
12.621338 17.369236 21.407072
12.620983 17.395489 21.450144
12.620306 17.418970 21.531363
12.619966 17.445358 21.572571
12.619847 17.473639 21.587694
12.619721 17.501848 21.603750
12.619334 17.527832 21.650530
12.618948 17.553816 21.697292
12.618428 17.578650 21.759882
12.617901 17.603420 21.823380
12.617735 17.631296 21.844080
12.617560 17.659101 21.865698
12.617553 17.688328 21.867788
12.617544 17.717552 21.869881
12.617464 17.746170 21.880339
12.617377 17.774721 21.891733
12.617329 17.803608 21.898472
12.617273 17.832430 21.906149
12.617249 17.861521 21.910095
12.617225 17.890612 21.914009
12.617216 17.919838 21.916101
12.617214 17.949131 21.917263
12.617207 17.978355 21.919355
12.617206 18.007650 21.920517
12.617205 18.036942 21.921680
12.617204 18.066233 21.922846
12.617195 18.095459 21.924934
12.617194 18.124752 21.926088
12.617193 18.154045 21.927252
12.617185 18.183271 21.929342
12.617176 18.212496 21.931442
12.617167 18.241720 21.933523
12.617158 18.270947 21.935623
12.617150 18.300171 21.937716
12.617141 18.329397 21.939806
12.617132 18.358620 21.941896
12.644161 15.390967 21.949905
12.644198 15.420600 21.946402
12.644238 15.450227 21.942917
12.644277 15.479859 21.939423
12.644314 15.509490 21.935940
12.644345 15.539053 21.933372
12.644344 15.568345 21.934525
12.644336 15.597570 21.936605
12.644335 15.626865 21.937757
12.644326 15.656091 21.939840
12.644325 15.685384 21.940992
12.644318 15.714610 21.943083
12.644355 15.744242 21.939589
12.644386 15.773803 21.937021
12.644432 15.803501 21.932610
12.644471 15.833133 21.929117
12.644526 15.862896 21.923767
12.644571 15.892595 21.919344
12.644641 15.922495 21.912130
12.644711 15.952394 21.904926
12.644789 15.982363 21.896784
12.644867 16.012331 21.888641
12.645022 16.042974 21.871204
12.645171 16.073547 21.854704
12.645753 16.107834 21.787052
12.646333 16.142124 21.719368
12.646898 16.176279 21.653530
12.647464 16.210434 21.587673
12.647872 16.243242 21.540413
12.648273 16.275982 21.494083
12.648665 16.308653 21.448671
12.649058 16.341326 21.403257
12.649381 16.373388 21.366234
12.649702 16.405453 21.329197
12.649914 16.436573 21.305199
12.650117 16.467625 21.282127
12.650243 16.497999 21.268379
12.650369 16.528374 21.254623
12.650359 16.557600 21.256714
12.650477 16.587912 21.243853
12.650594 16.618217 21.231033
12.650640 16.647915 21.226603
12.650680 16.677547 21.223099
12.650709 16.707111 21.220520
12.650741 16.736673 21.217955
12.650756 16.766104 21.217241
12.650770 16.795532 21.216530
12.650778 16.824892 21.216757
12.650784 16.854254 21.216972
12.650784 16.883547 21.218134
12.650784 16.912842 21.219288
12.650782 16.942135 21.220442
12.650774 16.971359 21.222521
12.650757 17.000517 21.225550
12.650733 17.029606 21.229496
12.650701 17.058630 21.234379
12.650668 17.087654 21.239262
12.650612 17.116472 21.246939
12.650549 17.145226 21.255541
12.650461 17.173775 21.266949
12.650374 17.202326 21.278343
12.650145 17.229656 21.306515
12.649908 17.256924 21.335623
12.649750 17.284864 21.355406
12.649583 17.312738 21.376127
12.649402 17.340475 21.398705
12.649220 17.368214 21.421282
12.649117 17.396629 21.434551
12.648793 17.423151 21.473864
12.648564 17.450485 21.502024
12.648186 17.476536 21.547888
12.647799 17.502516 21.594669
12.647491 17.529175 21.632147
12.647177 17.555767 21.670540
12.646750 17.581411 21.721960
12.646317 17.606989 21.774307
12.646096 17.634392 21.801519
12.645875 17.661793 21.828733
12.645866 17.691019 21.830824
12.645859 17.720243 21.832905
12.645723 17.748390 21.849886
12.645589 17.776537 21.866858
12.645478 17.804882 21.881037
12.645368 17.833231 21.895224
12.645312 17.862053 21.902889
12.645256 17.890873 21.910536
12.645240 17.920031 21.913555
12.645230 17.949259 21.915646
12.645222 17.978483 21.917734
12.645213 18.007708 21.919827
12.645205 18.036932 21.921917
12.645204 18.066225 21.923080
12.645204 18.095518 21.924242
12.645202 18.124811 21.925398
12.645193 18.154037 21.927486
12.645192 18.183331 21.928652
12.645184 18.212553 21.930740
12.645175 18.241779 21.932831
12.645166 18.271006 21.934933
12.645158 18.300230 21.937014
12.645148 18.329454 21.939114
12.645140 18.358681 21.941206
12.672057 15.390082 21.962210
12.672094 15.419714 21.958717
12.672118 15.449208 21.957087
12.672133 15.478638 21.956387
12.672155 15.508133 21.954746
12.672171 15.537560 21.954042
12.672193 15.567057 21.952414
12.672208 15.596483 21.951702
12.672231 15.625979 21.950073
12.672254 15.655476 21.948442
12.672276 15.684971 21.946804
12.672292 15.714398 21.946102
12.672291 15.743693 21.947254
12.672290 15.772985 21.948410
12.672336 15.802683 21.943987
12.672382 15.832381 21.939573
12.672429 15.862080 21.935143
12.672475 15.891778 21.930731
12.672545 15.921677 21.923515
12.672606 15.951509 21.917240
12.672700 15.981614 21.907244
12.672794 16.011713 21.897245
12.672966 16.042492 21.877953
12.673138 16.073271 21.858662
12.673523 16.105869 21.814257
12.673906 16.138468 21.769840
12.674685 16.174448 21.678888
12.675453 16.210360 21.588835
12.675799 16.242624 21.549026
12.676145 16.274893 21.509211
12.676514 16.307360 21.466600
12.676875 16.339764 21.424917
12.677284 16.372568 21.377640
12.677691 16.405378 21.330362
12.677865 16.436161 21.311020
12.678037 16.466938 21.291679
12.678028 16.496164 21.293768
12.678020 16.525393 21.295849
12.678224 16.556444 21.272747
12.678341 16.586752 21.259928
12.678458 16.617060 21.247108
12.678536 16.647030 21.238947
12.678615 16.676998 21.230783
12.678653 16.706629 21.227280
12.678683 16.736195 21.224703
12.678715 16.765759 21.222137
12.678744 16.795321 21.219559
12.678752 16.824682 21.219784
12.678751 16.853977 21.220938
12.678742 16.883200 21.223028
12.678734 16.912426 21.225109
12.678725 16.941652 21.227200
12.678717 16.970875 21.229290
12.678707 17.000103 21.231371
12.678691 17.029261 21.234390
12.678675 17.058420 21.237408
12.678658 17.087578 21.240427
12.678610 17.116463 21.247175
12.678555 17.145285 21.254850
12.678474 17.173901 21.265318
12.678388 17.202450 21.276724
12.678300 17.231001 21.288120
12.678212 17.259552 21.299526
12.678102 17.287897 21.313725
12.677990 17.316244 21.327925
12.677840 17.344252 21.346779
12.677690 17.372261 21.365625
12.677547 17.400337 21.383553
12.677398 17.428347 21.402411
12.676680 17.451492 21.488298
12.676459 17.478891 21.515530
12.676230 17.506224 21.543694
12.675985 17.533424 21.573719
12.675733 17.560555 21.604671
12.675315 17.586266 21.655174
12.674897 17.611979 21.705667
12.674551 17.638302 21.747780
12.674203 17.664621 21.789883
12.673912 17.691416 21.825474
12.673620 17.718210 21.861048
12.673612 17.747435 21.863146
12.673603 17.776663 21.865227
12.673484 17.804941 21.880344
12.673357 17.833155 21.896387
12.673302 17.861975 21.904053
12.673238 17.890730 21.912626
12.673222 17.919889 21.915646
12.673212 17.949114 21.917736
12.673196 17.978270 21.920763
12.673196 18.007565 21.921917
12.673186 18.036789 21.924007
12.673186 18.066082 21.925171
12.673178 18.095308 21.927261
12.673176 18.124599 21.928425
12.673176 18.153893 21.929588
12.673174 18.183186 21.930752
12.673174 18.212479 21.931915
12.673173 18.241772 21.933067
12.673164 18.270996 21.935169
12.673163 18.300289 21.936321
12.673155 18.329515 21.938412
12.673146 18.358738 21.940514
12.700088 15.390345 21.958727
12.700156 15.420245 21.951523
12.700227 15.450143 21.944319
12.700296 15.480043 21.937113
12.700319 15.509541 21.935474
12.700342 15.539036 21.933846
12.700341 15.568328 21.934998
12.700340 15.597621 21.936150
12.700340 15.626916 21.937304
12.700331 15.656141 21.939384
12.700322 15.685367 21.941465
12.700315 15.714593 21.943556
12.700320 15.743955 21.943781
12.700320 15.773246 21.944935
12.700366 15.802945 21.940512
12.700405 15.832577 21.937017
12.700562 15.863215 21.919590
12.700717 15.893860 21.902153
12.700709 15.923084 21.904243
12.700700 15.952312 21.906324
12.700951 15.983763 21.877739
12.701201 16.015213 21.849152
12.701177 16.044306 21.853086
12.701145 16.073328 21.857960
12.701490 16.105589 21.818211
12.701827 16.137787 21.779371
12.702486 16.172750 21.702394
12.703146 16.207714 21.625374
12.703665 16.241468 21.565092
12.704184 16.275221 21.504799
12.704552 16.307688 21.462187
12.704921 16.340160 21.419559
12.705291 16.372629 21.376947
12.705659 16.405098 21.334316
12.705887 16.436354 21.308462
12.706106 16.467539 21.283537
12.706240 16.497982 21.268850
12.706373 16.528425 21.254168
12.706364 16.557650 21.256247
12.706490 16.588028 21.242462
12.706614 16.618402 21.228714
12.706653 16.648033 21.225208
12.706684 16.677599 21.222633
12.706722 16.707230 21.219128
12.706753 16.736792 21.216562
12.706769 16.766222 21.215849
12.706775 16.795582 21.216076
12.706790 16.825010 21.215364
12.706797 16.854372 21.215588
12.706797 16.883665 21.216742
12.706796 16.912960 21.217896
12.706795 16.942251 21.219049
12.706795 16.971544 21.220201
12.706778 17.000704 21.223228
12.706761 17.029860 21.226248
12.706745 17.059019 21.229258
12.706728 17.088177 21.232285
12.706703 17.117268 21.236229
12.706679 17.146357 21.240177
12.706623 17.175179 21.247852
12.706560 17.203930 21.256464
12.706471 17.232479 21.267870
12.706385 17.261030 21.279266
12.706141 17.288227 21.309303
12.705894 17.315426 21.339340
12.705847 17.344311 21.346077
12.705791 17.373133 21.353754
12.705617 17.400938 21.375412
12.705436 17.428675 21.397989
12.704710 17.451754 21.484802
12.704473 17.479019 21.513903
12.704229 17.506216 21.543928
12.704008 17.533617 21.571161
12.703779 17.560951 21.599323
12.703400 17.587002 21.645166
12.703022 17.613050 21.691011
12.702628 17.638968 21.738710
12.702233 17.664883 21.786400
12.701950 17.691746 21.821054
12.701667 17.718605 21.855707
12.701657 17.747833 21.857798
12.701649 17.777060 21.859890
12.701522 17.805269 21.875933
12.701396 17.833483 21.891977
12.701340 17.862305 21.899643
12.701261 17.890923 21.910070
12.701237 17.920013 21.914026
12.701227 17.949242 21.916117
12.701211 17.978397 21.919136
12.701202 18.007624 21.921225
12.701185 18.036779 21.924244
12.701177 18.066006 21.926334
12.701160 18.095163 21.929361
12.701159 18.124456 21.930515
12.701159 18.153749 21.931681
12.701158 18.183044 21.932842
12.701157 18.212334 21.934006
12.701157 18.241627 21.935169
12.701155 18.270922 21.936331
12.701155 18.300213 21.937485
12.701154 18.329506 21.938648
12.701145 18.358730 21.940748
12.728384 15.392898 21.923676
12.728407 15.422393 21.922037
12.728406 15.451685 21.923189
12.728397 15.480912 21.925270
12.728396 15.510205 21.926424
12.728388 15.539431 21.928505
12.728379 15.568658 21.930586
12.728371 15.597882 21.932676
12.728371 15.627175 21.933830
12.728361 15.656403 21.935911
12.728369 15.685762 21.936134
12.728376 15.715123 21.936352
12.728421 15.744822 21.931940
12.728460 15.774452 21.928446
12.728506 15.804149 21.924023
12.728553 15.833848 21.919601
12.728623 15.863748 21.912395
12.728684 15.893582 21.906111
12.728889 15.924625 21.883108
12.729092 15.955674 21.860096
12.729115 15.985171 21.858456
12.729137 16.014664 21.856827
12.729356 16.045849 21.831938
12.729568 16.076965 21.807989
12.730094 16.110779 21.746828
12.730619 16.144596 21.685648
12.731351 16.180172 21.600250
12.732073 16.215679 21.515762
12.732340 16.247269 21.485252
12.732607 16.278862 21.454748
12.732991 16.311466 21.410263
12.733369 16.344004 21.366716
12.733565 16.374985 21.344580
12.733752 16.405903 21.323374
12.734059 16.437834 21.288204
12.734365 16.469759 21.253035
12.734357 16.498987 21.255116
12.734348 16.528214 21.257195
12.734481 16.558655 21.242521
12.734709 16.589912 21.216618
12.734794 16.619949 21.207527
12.734841 16.649649 21.203085
12.734879 16.679279 21.199581
12.734926 16.708977 21.195148
12.734973 16.738678 21.190718
12.735020 16.768377 21.186275
12.735057 16.798006 21.182779
12.735096 16.827639 21.179276
12.735134 16.857271 21.175772
12.735142 16.886629 21.175997
12.735149 16.915991 21.176214
12.735147 16.945286 21.177366
12.735147 16.974579 21.178518
12.735138 17.003803 21.180611
12.735122 17.032961 21.183630
12.735083 17.061918 21.189438
12.735034 17.090805 21.196188
12.734978 17.119623 21.203863
12.734922 17.148445 21.211540
12.734733 17.176117 21.235054
12.734543 17.203785 21.258568
12.734533 17.233013 21.260649
12.734526 17.262239 21.262737
12.734265 17.289299 21.294640
12.734004 17.316362 21.326530
12.733956 17.345249 21.333279
12.733908 17.374136 21.340027
12.733679 17.401470 21.368189
12.733450 17.428802 21.396358
12.732906 17.453436 21.461752
12.732567 17.479820 21.502958
12.732228 17.506207 21.544165
12.732030 17.533812 21.568605
12.731833 17.561415 21.593037
12.731430 17.587261 21.641684
12.731029 17.613110 21.690319
12.730612 17.638824 21.740810
12.730193 17.664536 21.791294
12.729980 17.692007 21.817570
12.729768 17.719477 21.843847
12.729758 17.748699 21.845947
12.729751 17.777927 21.848026
12.729639 17.806274 21.862215
12.729520 17.834555 21.877331
12.729457 17.863308 21.885925
12.729338 17.891590 21.901011
12.729275 17.920345 21.909603
12.729265 17.949570 21.911695
12.729249 17.978725 21.914724
12.729240 18.007952 21.916815
12.729223 18.037109 21.919832
12.729223 18.066402 21.920996
12.729222 18.095695 21.922157
12.729221 18.124989 21.923313
12.729220 18.154280 21.924475
12.729227 18.183641 21.924711
12.729227 18.212933 21.925873
12.729226 18.242228 21.927038
12.729225 18.271519 21.928202
12.729224 18.300812 21.929354
12.729215 18.330038 21.931456
12.729215 18.359329 21.932608
12.756297 15.392146 21.934124
12.756319 15.421644 21.932487
12.756350 15.451203 21.929930
12.756373 15.480700 21.928299
12.756371 15.509995 21.929443
12.756371 15.539288 21.930605
12.756370 15.568581 21.931759
12.756362 15.597806 21.933840
12.756361 15.627101 21.934984
12.756360 15.656393 21.936148
12.756407 15.686090 21.931725
12.756446 15.715722 21.928230
12.756499 15.745488 21.922882
12.756546 15.775184 21.918457
12.756607 15.805017 21.912182
12.756670 15.834851 21.905905
12.756889 15.866032 21.881027
12.757100 15.897147 21.857086
12.757131 15.926709 21.854530
12.757154 15.956206 21.852892
12.757365 15.987321 21.828941
12.757577 16.018435 21.804991
12.758133 16.052523 21.740110
12.758691 16.086609 21.675209
12.759265 16.120831 21.608423
12.759837 16.155056 21.541630
12.760222 16.187662 21.497152
12.760599 16.220196 21.453615
12.760976 16.252735 21.410059
12.761353 16.285275 21.366510
12.761683 16.317404 21.328547
12.762005 16.349470 21.291504
12.762233 16.380722 21.265648
12.762452 16.411911 21.240709
12.762444 16.441135 21.242790
12.762435 16.470362 21.244883
12.762545 16.500603 21.232990
12.762654 16.530840 21.221107
12.762732 16.560810 21.212946
12.762810 16.590780 21.204773
12.762911 16.620956 21.193789
12.762950 16.650585 21.190285
12.762989 16.680218 21.186781
12.763020 16.709782 21.184204
12.763042 16.739277 21.182564
12.763074 16.768841 21.179989
12.763103 16.798405 21.177422
12.763095 16.827629 21.179512
12.763086 16.856855 21.181593
12.763078 16.886082 21.183683
12.763069 16.915308 21.185764
12.763061 16.944532 21.187855
12.763052 16.973759 21.189936
12.763003 17.002647 21.196684
12.762956 17.031532 21.203432
12.762908 17.060421 21.210169
12.762852 17.089243 21.217846
12.762796 17.118061 21.225521
12.762733 17.146812 21.234135
12.762534 17.174417 21.258577
12.762337 17.202021 21.283016
12.762194 17.230097 21.300936
12.762044 17.258106 21.319794
12.761941 17.286520 21.333063
12.761829 17.314867 21.347261
12.761648 17.342604 21.369837
12.761466 17.370344 21.392414
12.761213 17.397474 21.423388
12.760639 17.421833 21.492500
12.760315 17.448357 21.531841
12.760086 17.475691 21.560001
12.759850 17.502956 21.589100
12.759447 17.528803 21.637737
12.759046 17.554651 21.686375
12.758627 17.580364 21.736866
12.758210 17.606077 21.787348
12.757998 17.633547 21.813625
12.757775 17.660950 21.840837
12.757767 17.690176 21.842928
12.757759 17.719398 21.845018
12.757640 17.747681 21.860126
12.757513 17.775894 21.876169
12.757449 17.804646 21.884773
12.757378 17.833332 21.894302
12.757322 17.862152 21.901978
12.757258 17.890907 21.910542
12.757242 17.920065 21.913561
12.757233 17.949291 21.915663
12.757216 17.978449 21.918678
12.757208 18.007673 21.920771
12.757199 18.036898 21.922861
12.757198 18.066191 21.924025
12.757198 18.095486 21.925186
12.757196 18.124777 21.926340
12.757196 18.154070 21.927504
12.757195 18.183363 21.928667
12.757195 18.212654 21.929831
12.757194 18.241949 21.930983
12.757193 18.271242 21.932156
12.757184 18.300465 21.934246
12.757174 18.329691 21.936338
12.757166 18.358915 21.938429
12.784272 15.391937 21.937143
12.784310 15.421566 21.933659
12.784348 15.451196 21.930166
12.784380 15.480760 21.927608
12.784370 15.509986 21.929680
12.784363 15.539211 21.931770
12.784353 15.568439 21.933851
12.784345 15.597664 21.935930
12.784360 15.627091 21.935219
12.784367 15.656453 21.935446
12.784413 15.686150 21.931034
12.784460 15.715847 21.926611
12.784513 15.745614 21.921261
12.784568 15.775378 21.915913
12.784810 15.806764 21.888252
12.785046 15.838079 21.861530
12.785100 15.867845 21.856171
12.785153 15.897612 21.850821
12.785311 15.928251 21.833382
12.785459 15.958828 21.816864
12.785882 15.991767 21.767801
12.786306 16.024704 21.718727
12.786910 16.059196 21.648241
12.787516 16.093693 21.577726
12.787901 16.126295 21.533262
12.788277 16.158831 21.489723
12.788662 16.191437 21.445248
12.789046 16.224041 21.400763
12.789306 16.255566 21.371178
12.789565 16.287090 21.341593
12.789847 16.318815 21.309216
12.790122 16.350475 21.277777
12.790335 16.381592 21.253765
12.790545 16.412712 21.229767
12.790537 16.441938 21.231857
12.790528 16.471163 21.233936
12.790622 16.501268 21.223911
12.790716 16.531374 21.213884
12.790825 16.561613 21.202002
12.790927 16.591785 21.191048
12.790965 16.621418 21.187542
12.791028 16.651253 21.181206
12.791051 16.680748 21.179567
12.791081 16.710312 21.176989
12.791104 16.739809 21.175350
12.791096 16.769037 21.177431
12.791087 16.798260 21.179522
12.791079 16.827486 21.181602
12.791061 16.856646 21.184622
12.791053 16.885868 21.186710
12.791037 16.915028 21.189730
12.791028 16.944256 21.191811
12.791012 16.973413 21.194828
12.790971 17.002367 21.200649
12.790923 17.031254 21.207388
12.790875 17.060143 21.214136
12.790819 17.088963 21.221813
12.790606 17.116428 21.248119
12.790385 17.143831 21.275352
12.790257 17.172043 21.291416
12.790132 17.200253 21.307478
12.790012 17.228533 21.322605
12.789893 17.256813 21.337732
12.789618 17.283739 21.371487
12.789332 17.310598 21.406181
12.789175 17.338539 21.425966
12.789016 17.366482 21.445749
12.788670 17.392803 21.487852
12.788268 17.418648 21.536510
12.787865 17.444496 21.585155
12.787479 17.470478 21.631937
12.787086 17.496393 21.679646
12.786793 17.523188 21.715239
12.786502 17.549984 21.750830
12.786139 17.576166 21.794798
12.785776 17.602356 21.838758
12.785768 17.631582 21.840839
12.785759 17.660805 21.842928
12.785601 17.688749 21.862694
12.785443 17.716692 21.882456
12.785371 17.745377 21.891987
12.785300 17.774063 21.901518
12.785267 17.803085 21.906403
12.785235 17.832109 21.911276
12.785227 17.861334 21.913376
12.785218 17.890560 21.915424
12.785210 17.919786 21.917517
12.785208 17.949080 21.918680
12.785200 17.978304 21.920771
12.785199 18.007599 21.921934
12.785198 18.036890 21.923098
12.785197 18.066181 21.924261
12.785197 18.095476 21.925423
12.785195 18.124769 21.926577
12.785195 18.154060 21.927738
12.785193 18.183353 21.928904
12.785185 18.212580 21.930992
12.785177 18.241806 21.933084
12.785168 18.271030 21.935175
12.785159 18.300255 21.937265
12.785151 18.329481 21.939356
12.785142 18.358704 21.941458
12.812412 15.393141 21.920664
12.812411 15.422435 21.921818
12.812410 15.451726 21.922972
12.812403 15.480953 21.925053
12.812401 15.510248 21.926205
12.812401 15.539540 21.927359
12.812407 15.568900 21.927582
12.812407 15.598193 21.928738
12.812453 15.627892 21.924316
12.812499 15.657590 21.919891
12.812546 15.687287 21.915470
12.812585 15.716919 21.911976
12.812772 15.747831 21.890829
12.812960 15.778741 21.869682
12.812935 15.807834 21.873617
12.812903 15.836858 21.878490
12.813154 15.868307 21.849903
12.813396 15.899693 21.822233
12.813671 15.931348 21.790844
12.813945 15.963005 21.759443
12.814581 15.997766 21.685247
12.815217 16.032528 21.611023
12.815751 16.066416 21.548883
12.816278 16.100237 21.487654
12.816521 16.131622 21.459944
12.816756 16.162947 21.433149
12.817133 16.195484 21.389603
12.817510 16.228020 21.346046
12.817824 16.260017 21.309948
12.818138 16.292017 21.273840
12.818381 16.323402 21.246122
12.818624 16.354794 21.218391
12.818617 16.384018 21.220472
12.818607 16.413246 21.222553
12.818709 16.443417 21.211597
12.818803 16.473520 21.201571
12.818872 16.503424 21.194338
12.818943 16.533325 21.187113
12.818989 16.563025 21.182669
12.819028 16.592657 21.179165
12.819058 16.622221 21.176600
12.819129 16.652122 21.169323
12.819160 16.681688 21.166758
12.819159 16.710981 21.167912
12.819159 16.740273 21.169064
12.819150 16.769501 21.171154
12.819140 16.798725 21.173235
12.819124 16.827885 21.176254
12.819107 16.857042 21.179272
12.819091 16.886200 21.182291
12.819076 16.915358 21.185308
12.819058 16.944515 21.188328
12.819034 16.973606 21.192272
12.818985 17.002495 21.199020
12.818937 17.031382 21.205759
12.818732 17.058916 21.231138
12.818519 17.086386 21.257444
12.818377 17.114462 21.275362
12.818227 17.142469 21.294218
12.818028 17.170074 21.318659
12.817831 17.197676 21.343111
12.817649 17.225414 21.365686
12.817468 17.253153 21.388273
12.817326 17.281229 21.406193
12.817174 17.309240 21.425047
12.817048 17.337448 21.441101
12.816920 17.365662 21.457165
12.816228 17.389009 21.540251
12.815858 17.415125 21.585167
12.815486 17.441244 21.630083
12.815116 17.467363 21.674999
12.814738 17.493412 21.720833
12.814320 17.519127 21.771315
12.813903 17.544842 21.821787
12.813893 17.574066 21.823877
12.813886 17.603291 21.825968
12.813712 17.631100 21.847597
12.813530 17.658840 21.870144
12.813442 17.687391 21.881538
12.813348 17.715872 21.893852
12.813323 17.744963 21.897808
12.813299 17.774055 21.901754
12.813282 17.803209 21.904781
12.813258 17.832302 21.908728
12.813250 17.861528 21.910818
12.813240 17.890755 21.912880
12.813232 17.919979 21.914970
12.813231 17.949274 21.916134
12.813222 17.978498 21.918224
12.813222 18.007790 21.919386
12.813212 18.037016 21.921469
12.813212 18.066309 21.922630
12.813211 18.095604 21.923794
12.813210 18.124893 21.924957
12.813210 18.154188 21.926111
12.813209 18.183481 21.927275
12.813208 18.212772 21.928436
12.813199 18.241999 21.930529
12.813190 18.271225 21.932629
12.813182 18.300449 21.934719
12.813172 18.329674 21.936810
12.813164 18.358898 21.938900
12.840436 15.393334 21.918118
12.840426 15.422560 21.920198
12.840426 15.451853 21.921352
12.840418 15.481080 21.923433
12.840432 15.510508 21.922731
12.840440 15.539868 21.922945
12.840478 15.569499 21.919462
12.840516 15.599130 21.915956
12.840673 15.629771 21.898531
12.840829 15.660414 21.881104
12.840946 15.690719 21.868313
12.841056 15.720955 21.856462
12.841204 15.751532 21.839952
12.841352 15.782106 21.823441
12.841391 15.811738 21.819946
12.841430 15.841369 21.816442
12.841696 15.872955 21.785990
12.841954 15.904477 21.756445
12.842370 15.937346 21.708300
12.842777 15.970151 21.661072
12.843399 16.004782 21.588701
12.844020 16.039412 21.516310
12.844412 16.072083 21.470907
12.844805 16.104755 21.425505
12.845284 16.138172 21.369841
12.845756 16.171520 21.315111
12.845834 16.201490 21.306950
12.845911 16.231459 21.298779
12.846210 16.263323 21.264536
12.846500 16.295116 21.231222
12.846664 16.325829 21.212816
12.846822 16.356476 21.195339
12.846813 16.385698 21.197420
12.846804 16.414927 21.199501
12.846930 16.445303 21.185753
12.847046 16.475607 21.172934
12.847085 16.505239 21.169428
12.847116 16.534805 21.166853
12.847146 16.564367 21.164276
12.847178 16.593931 21.161709
12.847177 16.623226 21.162863
12.847177 16.652521 21.163975
12.847176 16.681814 21.165129
12.847175 16.711107 21.166281
12.847166 16.740334 21.168371
12.847165 16.769627 21.169525
12.847164 16.798918 21.170679
12.847164 16.828213 21.171833
12.847155 16.857441 21.173914
12.847138 16.886595 21.176941
12.847122 16.915754 21.179951
12.847105 16.944914 21.182966
12.847081 16.974003 21.186924
12.846938 17.002079 21.204842
12.846788 17.030088 21.223698
12.846646 17.058165 21.241617
12.846495 17.086174 21.260473
12.846313 17.113911 21.283049
12.846132 17.141651 21.305634
12.846021 17.169998 21.319832
12.845910 17.198343 21.334030
12.845719 17.226015 21.357544
12.845522 17.253620 21.381987
12.845263 17.280680 21.413877
12.844993 17.307674 21.446707
12.844693 17.334400 21.483255
12.844000 17.357748 21.566330
12.843598 17.383596 21.614965
12.843314 17.410456 21.649651
12.843030 17.437319 21.684315
12.842770 17.464382 21.716185
12.842510 17.491446 21.748056
12.842147 17.517632 21.792027
12.841784 17.543821 21.835976
12.841776 17.573044 21.838066
12.841767 17.602270 21.840157
12.841618 17.630281 21.858992
12.841467 17.658291 21.877819
12.841403 17.687044 21.886423
12.841340 17.715796 21.895025
12.841323 17.744955 21.898045
12.841307 17.774113 21.901064
12.841297 17.803337 21.903152
12.841281 17.832497 21.906172
12.841273 17.861721 21.908262
12.841256 17.890881 21.911249
12.841248 17.920107 21.913340
12.841247 17.949400 21.914503
12.841246 17.978691 21.915668
12.841253 18.008053 21.915894
12.841251 18.037346 21.917055
12.841259 18.066704 21.917292
12.841259 18.095999 21.918446
12.841257 18.125292 21.919609
12.841249 18.154516 21.921700
12.841240 18.183743 21.923800
12.841231 18.212967 21.925880
12.841223 18.242193 21.927980
12.841213 18.271418 21.930071
12.841213 18.300709 21.931234
12.841211 18.330004 21.932400
12.841211 18.359295 21.933552
12.868411 15.393124 21.921137
12.868410 15.422418 21.922289
12.868409 15.451711 21.923443
12.868402 15.480936 21.925524
12.868407 15.510298 21.925751
12.868415 15.539658 21.925974
12.868461 15.569355 21.921553
12.868500 15.598986 21.918058
12.868554 15.628752 21.912708
12.868608 15.658518 21.907360
12.868804 15.689495 21.885284
12.868992 15.720408 21.864126
12.868951 15.749366 21.869928
12.868912 15.778319 21.875729
12.869185 15.809975 21.844349
12.869452 15.841563 21.813896
12.869876 15.874497 21.764833
12.870291 15.907370 21.716688
12.870762 15.940714 21.662020
12.871225 15.973993 21.608259
12.871893 16.009027 21.530294
12.872561 16.044064 21.452307
12.872804 16.075453 21.424587
12.873048 16.106842 21.396870
12.873425 16.139380 21.353310
12.873801 16.171917 21.309753
12.873998 16.202902 21.287619
12.874193 16.233883 21.265484
12.874271 16.263853 21.257320
12.874350 16.293825 21.249161
12.874491 16.324333 21.233538
12.874632 16.354843 21.217926
12.874757 16.385218 21.204178
12.874874 16.415525 21.191360
12.874960 16.445562 21.182259
12.875037 16.475533 21.174097
12.875076 16.505165 21.170593
12.875108 16.534727 21.168026
12.875137 16.564291 21.165449
12.875160 16.593788 21.163811
12.875159 16.623083 21.164963
12.875159 16.652376 21.166077
12.875159 16.681671 21.167229
12.875150 16.710896 21.169319
12.875141 16.740120 21.171400
12.875134 16.769348 21.173481
12.875124 16.798573 21.175573
12.875115 16.827801 21.177654
12.875106 16.857025 21.179745
12.875090 16.886183 21.182762
12.875074 16.915340 21.185781
12.875065 16.944567 21.187862
12.875049 16.973724 21.190880
12.874906 17.001801 21.208809
12.874756 17.029810 21.227663
12.874605 17.057817 21.246510
12.874454 17.085827 21.265366
12.874266 17.113499 21.288879
12.874076 17.141169 21.312393
12.873972 17.169584 21.325653
12.873869 17.197996 21.338926
12.873663 17.225534 21.364294
12.873458 17.253069 21.389671
12.873190 17.280064 21.422491
12.872913 17.306992 21.456247
12.872575 17.333376 21.497454
12.871865 17.356590 21.582394
12.871479 17.382574 21.629166
12.871030 17.408014 21.683397
12.870581 17.433458 21.737610
12.870218 17.459646 21.781569
12.869848 17.485765 21.826454
12.869839 17.514990 21.828547
12.869831 17.544216 21.830637
12.869673 17.572159 21.850389
12.869514 17.600101 21.870153
12.869435 17.628719 21.880621
12.869348 17.657270 21.892008
12.869324 17.686361 21.895952
12.869300 17.715450 21.899910
12.869290 17.744677 21.901999
12.869274 17.773836 21.905018
12.869265 17.803059 21.907110
12.869257 17.832285 21.909201
12.869248 17.861511 21.911291
12.869239 17.890738 21.913351
12.869231 17.919962 21.915442
12.869237 17.949324 21.915668
12.869245 17.978683 21.915903
12.869252 18.008043 21.916130
12.869250 18.037336 21.917292
12.869258 18.066696 21.917526
12.869258 18.095991 21.918682
12.869264 18.125349 21.918917
12.869264 18.154642 21.920080
12.869254 18.183870 21.922171
12.869238 18.213024 21.925190
12.869229 18.242250 21.927290
12.869212 18.271410 21.930307
12.869205 18.300634 21.932398
12.869187 18.329792 21.935415
12.869171 18.358948 21.938444
12.896410 15.393116 21.921371
12.896401 15.422341 21.923452
12.896400 15.451633 21.924606
12.896392 15.480861 21.926685
12.896406 15.510288 21.925985
12.896414 15.539648 21.926210
12.896460 15.569347 21.921789
12.896506 15.599045 21.917368
12.896561 15.628809 21.912018
12.896606 15.658508 21.907597
12.896803 15.689487 21.885519
12.896998 15.720466 21.863436
12.896966 15.749491 21.868309
12.896935 15.778514 21.873173
12.897184 15.809967 21.844585
12.897428 15.841352 21.816914
12.897757 15.873478 21.779013
12.898078 15.905540 21.742037
12.898588 15.939219 21.682720
12.899090 15.972835 21.624325
12.899688 16.007263 21.554735
12.900285 16.041691 21.485128
12.900654 16.074160 21.442516
12.901023 16.106630 21.399897
12.901416 16.139303 21.354475
12.901800 16.171907 21.309990
12.902020 16.203096 21.285061
12.902231 16.234213 21.261061
12.902372 16.264725 21.245449
12.902514 16.295235 21.229837
12.902670 16.325880 21.212351
12.902820 16.356459 21.195812
12.902811 16.385681 21.197893
12.902802 16.414909 21.199974
12.902896 16.445015 21.189955
12.902989 16.475119 21.179928
12.903051 16.504951 21.173622
12.903114 16.534788 21.167324
12.903144 16.564350 21.164749
12.903175 16.593914 21.162180
12.903174 16.623209 21.163334
12.903174 16.652504 21.164446
12.903173 16.681799 21.165602
12.903172 16.711090 21.166754
12.903164 16.740316 21.168844
12.903163 16.769609 21.169998
12.903162 16.798901 21.171150
12.903162 16.828196 21.172304
12.903152 16.857424 21.174385
12.903144 16.886646 21.176476
12.903136 16.915873 21.178566
12.903111 16.944963 21.182512
12.903079 16.973986 21.187395
12.902912 17.001860 21.208107
12.902739 17.029665 21.229753
12.902589 17.057674 21.248611
12.902430 17.085615 21.268394
12.902241 17.113285 21.291908
12.902043 17.140890 21.316351
12.901956 17.169441 21.327755
12.901868 17.197987 21.339161
12.901654 17.225456 21.365467
12.901434 17.252859 21.392700
12.901189 17.280054 21.422728
12.900936 17.307186 21.453690
